ncols         493
nrows         40
xllcorner     4164107.43174
yllcorner     1955699.3883
cellsize      25
NODATA_value  -9999
-9999 -9999 -9999 -9999 -9999 -9999 -9999 -9999 -9999 -9999 -9999 -9999 -9999 -9999 -9999 -9999 -9999 -9999 -9999 -9999 -9999 -9999 -9999 -9999 -9999 -9999 -9999 -9999 -9999 -9999 -9999 -9999 -9999 -9999 -9999 -9999 -9999 -9999 -9999 -9999 -9999 -9999 -9999 -9999 -9999 -9999 -9999 -9999 -9999 -9999 -9999 -9999 -9999 -9999 -9999 -9999 -9999 -9999 -9999 -9999 -9999 -9999 -9999 -9999 -9999 -9999 -9999 -9999 -9999 -9999 -9999 -9999 -9999 -9999 -9999 -9999 -9999 -9999 -9999 -9999 -9999 -9999 -9999 -9999 -9999 -9999 -9999 -9999 -9999 -9999 -9999 -9999 -9999 -9999 -9999 -9999 -9999 -9999 -9999 -9999 -9999 -9999 -9999 -9999 -9999 -9999 -9999 -9999 -9999 -9999 -9999 -9999 -9999 -9999 -9999 -9999 -9999 -9999 -9999 -9999 -9999 -9999 -9999 24 24 25 25 25 25 -9999 -9999 -9999 -9999 -9999 -9999 -9999 -9999 -9999 -9999 -9999 -9999 -9999 -9999 -9999 -9999 -9999 -9999 28 31 33 36 38 38 38 37 36 35 35 36 37 40 43 47 53 59 64 69 75 80 84 87 88 87 86 82 78 74 70 67 64 63 64 66 70 73 76 78 79 80 79 77 73 69 66 62 59 60 62 67 73 77 80 80 79 77 73 69 64 59 55 53 50 46 42 38 34 30 30 36 44 50 55 59 62 64 65 66 66 64 63 62 61 61 62 63 64 65 66 66 66 66 65 65 65 65 63 62 58 54 50 47 46 46 46 46 45 46 46 46 47 48 50 52 54 58 62 63 61 59 56 53 50 47 46 45 45 45 45 44 46 49 52 55 58 61 65 67 69 70 71 71 71 70 70 70 70 69 69 69 69 68 67 66 65 64 64 64 64 64 64 63 62 61 61 60 60 60 61 62 64 65 66 67 68 69 71 72 73 74 74 74 74 74 73 72 71 71 72 73 74 75 75 73 72 72 72 72 73 74 73 73 73 73 73 74 74 75 75 74 74 74 73 73 72 72 72 72 72 72 73 73 74 74 73 73 72 71 71 71 71 71 72 72 72 71 71 69 68 67 67 66 66 66 66 66 65 64 63 62 62 61 60 60 59 59 59 58 58 58 57 57 57 57 58 58 57 57 57 56 56 56 56 57 57 57 56 56 55 54 54 53 53 53 53 53 54 55 56 57 57 -9999 -9999 -9999 -9999 -9999 -9999 -9999 -9999 -9999 -9999 -9999 -9999 -9999 -9999 -9999 -9999 -9999 -9999 -9999 -9999 -9999 -9999 -9999 -9999 -9999 -9999 -9999 -9999 -9999 -9999 -9999 -9999 -9999 -9999 -9999 -9999 -9999 -9999 -9999 -9999 -9999 -9999 -9999 -9999 -9999 -9999 -9999 -9999 -9999 -9999 -9999 -9999 -9999
-9999 -9999 -9999 -9999 -9999 -9999 -9999 -9999 -9999 -9999 -9999 -9999 -9999 -9999 -9999 -9999 -9999 -9999 -9999 -9999 -9999 -9999 -9999 -9999 -9999 -9999 -9999 -9999 -9999 -9999 -9999 -9999 -9999 -9999 -9999 -9999 -9999 -9999 -9999 -9999 -9999 -9999 -9999 -9999 -9999 -9999 -9999 -9999 -9999 -9999 -9999 -9999 -9999 -9999 -9999 -9999 -9999 -9999 -9999 -9999 -9999 -9999 -9999 -9999 -9999 -9999 -9999 -9999 -9999 -9999 -9999 -9999 -9999 -9999 -9999 -9999 -9999 -9999 -9999 -9999 -9999 -9999 -9999 -9999 -9999 -9999 -9999 -9999 -9999 -9999 -9999 -9999 -9999 -9999 -9999 -9999 -9999 -9999 -9999 -9999 -9999 -9999 -9999 -9999 -9999 -9999 -9999 -9999 -9999 -9999 -9999 -9999 -9999 -9999 -9999 -9999 -9999 -9999 -9999 -9999 -9999 -9999 -9999 -9999 -9999 -9999 -9999 -9999 -9999 -9999 -9999 -9999 -9999 -9999 -9999 -9999 -9999 -9999 -9999 -9999 -9999 -9999 -9999 -9999 -9999 -9999 -9999 -9999 -9999 25 28 30 31 32 33 33 33 34 35 37 39 41 45 50 55 60 66 71 74 77 78 79 79 77 75 71 67 64 61 60 60 61 62 65 68 72 74 74 75 74 73 69 66 62 58 55 56 58 63 69 74 78 80 79 76 73 67 62 57 54 51 48 45 41 37 32 28 30 36 43 49 54 57 60 62 64 65 64 63 62 61 60 60 60 61 63 64 65 65 65 65 65 64 65 65 64 63 60 56 52 49 47 46 46 46 45 45 45 45 46 47 48 50 53 56 60 62 61 59 56 53 50 48 47 46 46 45 44 44 47 51 53 56 59 62 65 68 69 70 70 71 71 70 70 70 69 69 69 69 69 68 66 65 64 63 63 63 63 63 63 63 62 61 61 60 60 60 61 62 64 65 66 67 68 69 71 72 73 74 74 74 74 73 72 71 71 70 71 72 73 74 73 72 71 71 71 72 72 73 73 72 72 72 72 73 74 74 74 74 74 73 73 72 71 71 71 71 71 72 72 72 73 73 73 72 72 71 70 70 71 71 71 72 72 72 71 70 69 68 67 67 66 66 66 65 64 63 63 62 61 61 60 60 60 59 59 58 58 58 57 57 57 57 57 57 57 56 56 56 55 55 55 55 56 56 56 56 55 54 54 53 53 53 53 54 54 55 56 57 58 58 -9999 -9999 -9999 -9999 -9999 -9999 -9999 -9999 -9999 -9999 -9999 -9999 -9999 -9999 -9999 -9999 -9999 -9999 -9999 -9999 -9999 -9999 -9999 -9999 -9999 -9999 -9999 -9999 -9999 -9999 -9999 -9999 -9999 -9999 -9999 -9999 -9999 -9999 -9999 -9999 -9999 -9999 -9999 -9999 -9999 -9999 -9999 -9999 -9999 -9999 -9999 -9999
-9999 -9999 -9999 -9999 -9999 -9999 -9999 -9999 -9999 -9999 -9999 -9999 -9999 -9999 -9999 -9999 -9999 -9999 -9999 -9999 -9999 -9999 -9999 -9999 -9999 -9999 -9999 -9999 -9999 -9999 -9999 -9999 -9999 -9999 -9999 -9999 -9999 -9999 -9999 -9999 -9999 -9999 -9999 -9999 -9999 -9999 -9999 -9999 -9999 -9999 -9999 -9999 -9999 -9999 -9999 -9999 -9999 -9999 -9999 -9999 -9999 -9999 -9999 -9999 -9999 -9999 -9999 -9999 -9999 -9999 -9999 -9999 -9999 -9999 -9999 -9999 -9999 -9999 -9999 -9999 -9999 -9999 -9999 -9999 -9999 -9999 -9999 -9999 -9999 -9999 -9999 -9999 -9999 -9999 -9999 -9999 -9999 -9999 -9999 -9999 -9999 -9999 -9999 -9999 -9999 -9999 -9999 -9999 -9999 -9999 -9999 -9999 -9999 -9999 -9999 -9999 -9999 -9999 -9999 -9999 -9999 -9999 -9999 -9999 -9999 -9999 -9999 -9999 -9999 -9999 -9999 -9999 -9999 -9999 -9999 -9999 -9999 -9999 -9999 -9999 -9999 -9999 -9999 -9999 -9999 -9999 -9999 -9999 -9999 -9999 22 24 26 28 30 31 32 33 34 35 37 38 41 45 50 55 60 64 67 68 69 70 70 69 67 63 59 56 54 54 54 55 56 58 62 66 68 69 69 69 68 65 61 57 53 50 51 54 58 64 70 74 77 78 75 71 66 60 56 52 49 46 43 40 35 30 28 31 36 41 46 51 55 57 59 61 62 62 61 60 60 59 59 59 60 61 63 64 64 64 64 64 64 64 65 65 64 62 58 54 52 49 47 47 46 45 45 45 45 46 47 49 51 53 56 60 62 61 59 57 54 52 50 49 48 46 45 44 45 49 51 54 56 59 63 66 68 69 70 70 70 70 70 70 70 69 69 69 69 68 68 66 65 63 63 62 62 62 63 63 62 62 61 61 60 60 60 61 62 64 66 67 68 68 69 70 71 72 73 73 73 73 73 72 71 70 70 70 71 72 72 72 71 70 70 70 71 72 72 72 72 71 71 72 73 73 73 74 73 73 73 72 71 71 70 70 70 71 71 71 72 72 73 72 72 71 71 70 70 70 71 71 72 72 72 71 71 70 69 68 67 67 66 66 65 64 63 63 62 61 61 61 61 60 60 59 59 58 58 57 57 57 57 57 57 56 56 55 55 55 55 55 55 55 55 56 56 55 54 54 53 53 53 53 54 55 55 56 57 58 58 -9999 -9999 -9999 -9999 -9999 -9999 -9999 -9999 -9999 -9999 -9999 -9999 -9999 -9999 -9999 -9999 -9999 -9999 -9999 -9999 -9999 -9999 -9999 -9999 -9999 -9999 -9999 -9999 -9999 -9999 -9999 -9999 -9999 -9999 -9999 -9999 -9999 -9999 -9999 -9999 -9999 -9999 -9999 -9999 -9999 -9999 -9999 -9999 -9999 -9999 -9999 -9999
-9999 -9999 -9999 -9999 -9999 -9999 -9999 -9999 -9999 -9999 -9999 -9999 -9999 -9999 -9999 -9999 -9999 -9999 -9999 -9999 -9999 -9999 -9999 -9999 -9999 -9999 -9999 -9999 -9999 -9999 -9999 -9999 -9999 -9999 -9999 -9999 -9999 -9999 -9999 -9999 -9999 -9999 -9999 -9999 -9999 -9999 -9999 -9999 -9999 -9999 -9999 -9999 -9999 -9999 -9999 -9999 -9999 -9999 -9999 -9999 -9999 -9999 -9999 -9999 -9999 -9999 -9999 -9999 -9999 -9999 -9999 -9999 -9999 -9999 -9999 -9999 -9999 -9999 -9999 -9999 -9999 -9999 -9999 -9999 -9999 -9999 -9999 -9999 -9999 -9999 -9999 -9999 -9999 -9999 -9999 -9999 -9999 -9999 -9999 -9999 -9999 -9999 -9999 -9999 -9999 -9999 -9999 -9999 -9999 -9999 -9999 -9999 -9999 -9999 -9999 -9999 -9999 -9999 -9999 -9999 -9999 -9999 -9999 -9999 -9999 -9999 -9999 -9999 -9999 -9999 -9999 -9999 -9999 -9999 -9999 -9999 -9999 -9999 -9999 -9999 -9999 -9999 -9999 -9999 -9999 -9999 -9999 -9999 -9999 -9999 -9999 -9999 22 25 27 29 30 31 32 33 33 34 36 39 43 47 53 57 58 58 59 60 61 60 58 55 51 48 46 46 46 47 49 51 55 59 62 63 64 64 62 60 56 52 49 47 47 50 53 58 64 70 73 74 72 68 64 59 55 51 47 44 41 37 33 29 27 30 34 38 42 47 51 53 55 57 59 59 59 59 59 58 58 58 58 60 61 63 63 63 64 64 64 65 65 65 65 64 61 57 55 53 51 49 48 46 45 45 46 47 49 51 53 55 57 60 62 61 60 58 56 54 52 50 48 46 45 44 47 50 52 54 57 60 64 67 68 69 70 70 70 70 70 70 69 69 69 69 69 68 68 67 65 63 62 62 62 62 62 62 62 61 61 60 60 60 60 61 62 64 66 67 68 69 69 70 71 71 72 72 72 72 72 71 70 69 69 69 70 70 71 71 70 70 69 69 70 71 71 71 71 71 71 72 72 73 73 73 73 73 73 72 71 71 70 70 70 70 70 70 71 71 72 72 72 71 70 70 70 70 70 71 71 71 71 71 71 71 70 69 68 67 67 66 66 65 64 63 63 62 62 61 61 61 60 60 59 59 58 58 57 57 57 57 57 56 56 55 55 55 55 55 55 55 55 55 55 55 54 54 53 53 53 53 54 55 55 56 57 58 59 -9999 -9999 -9999 -9999 -9999 -9999 -9999 -9999 -9999 -9999 -9999 -9999 -9999 -9999 -9999 -9999 -9999 -9999 -9999 -9999 -9999 -9999 -9999 -9999 -9999 -9999 -9999 -9999 -9999 -9999 -9999 -9999 -9999 -9999 -9999 -9999 -9999 -9999 -9999 -9999 -9999 -9999 -9999 -9999 -9999 -9999 -9999 -9999 -9999 -9999 -9999 -9999
-9999 -9999 -9999 -9999 -9999 -9999 -9999 -9999 -9999 -9999 -9999 -9999 -9999 -9999 -9999 -9999 -9999 -9999 -9999 -9999 -9999 -9999 -9999 -9999 -9999 -9999 -9999 -9999 -9999 -9999 -9999 -9999 -9999 -9999 -9999 -9999 -9999 -9999 -9999 -9999 -9999 -9999 -9999 -9999 -9999 -9999 -9999 -9999 -9999 -9999 -9999 -9999 -9999 -9999 -9999 -9999 -9999 -9999 -9999 -9999 -9999 -9999 -9999 -9999 -9999 -9999 -9999 -9999 -9999 -9999 -9999 -9999 -9999 -9999 -9999 -9999 -9999 -9999 -9999 -9999 -9999 -9999 -9999 -9999 -9999 -9999 -9999 -9999 -9999 -9999 -9999 -9999 -9999 -9999 -9999 -9999 -9999 -9999 -9999 -9999 -9999 -9999 -9999 -9999 -9999 -9999 -9999 -9999 -9999 -9999 -9999 -9999 -9999 -9999 -9999 -9999 -9999 -9999 -9999 -9999 -9999 -9999 -9999 -9999 -9999 -9999 -9999 -9999 -9999 -9999 -9999 -9999 -9999 -9999 -9999 -9999 -9999 -9999 -9999 -9999 -9999 -9999 -9999 -9999 -9999 -9999 -9999 -9999 -9999 -9999 -9999 -9999 14 23 26 28 29 29 29 29 29 29 30 32 35 39 44 47 48 48 49 51 51 51 49 47 44 41 39 39 40 41 43 45 48 52 55 57 58 57 56 54 51 48 46 45 45 47 49 53 59 64 68 69 68 65 62 58 55 51 47 43 40 36 32 28 27 28 31 34 38 42 45 49 52 55 57 58 58 58 58 58 57 57 57 58 60 61 62 63 64 64 65 65 65 66 66 65 64 61 59 56 54 52 51 49 47 45 45 48 51 53 55 57 59 60 61 61 60 58 56 54 52 50 48 46 44 46 49 51 53 56 58 62 65 67 68 69 69 70 70 70 70 69 69 69 69 69 69 68 68 67 65 63 61 61 61 62 62 62 61 61 61 60 60 60 60 61 62 64 66 67 68 68 69 69 70 70 70 71 71 70 70 69 69 68 68 68 69 69 69 69 69 69 68 69 69 70 71 71 71 71 71 72 72 73 73 73 72 72 72 72 71 70 70 70 70 69 69 69 70 70 71 71 71 71 70 70 69 69 70 70 71 71 71 71 71 71 71 70 69 68 67 67 66 65 65 64 63 63 63 62 62 62 61 60 60 60 59 59 58 58 58 58 57 57 56 56 55 55 55 55 55 55 55 55 55 55 54 54 54 53 53 53 54 54 55 56 57 59 59 -9999 -9999 -9999 -9999 -9999 -9999 -9999 -9999 -9999 -9999 -9999 -9999 -9999 -9999 -9999 -9999 -9999 -9999 -9999 -9999 -9999 -9999 -9999 -9999 -9999 -9999 -9999 -9999 -9999 -9999 -9999 -9999 -9999 -9999 -9999 -9999 -9999 -9999 -9999 -9999 -9999 -9999 -9999 -9999 -9999 -9999 -9999 -9999 -9999 -9999 -9999 -9999
-9999 -9999 -9999 -9999 -9999 -9999 -9999 -9999 -9999 -9999 -9999 -9999 -9999 -9999 -9999 -9999 -9999 -9999 -9999 -9999 -9999 -9999 -9999 -9999 -9999 -9999 -9999 -9999 -9999 -9999 -9999 -9999 -9999 -9999 -9999 -9999 -9999 -9999 -9999 -9999 -9999 -9999 -9999 -9999 -9999 -9999 -9999 -9999 -9999 -9999 -9999 -9999 -9999 -9999 -9999 -9999 -9999 -9999 -9999 -9999 -9999 -9999 -9999 -9999 -9999 -9999 -9999 -9999 -9999 -9999 -9999 -9999 -9999 -9999 -9999 -9999 -9999 -9999 -9999 -9999 -9999 -9999 -9999 -9999 -9999 -9999 -9999 -9999 -9999 -9999 -9999 -9999 -9999 -9999 -9999 -9999 -9999 -9999 -9999 -9999 -9999 -9999 -9999 -9999 -9999 -9999 -9999 -9999 -9999 -9999 -9999 -9999 -9999 -9999 -9999 -9999 -9999 -9999 -9999 -9999 -9999 -9999 -9999 -9999 -9999 -9999 -9999 -9999 -9999 -9999 -9999 -9999 -9999 -9999 -9999 -9999 -9999 -9999 -9999 -9999 -9999 -9999 -9999 -9999 -9999 -9999 -9999 -9999 -9999 -9999 -9999 8 15 22 25 26 27 26 26 25 24 23 24 25 28 31 35 38 39 39 39 41 42 42 41 40 38 36 35 34 35 37 39 40 42 45 47 49 50 50 50 48 46 45 44 43 44 45 47 50 54 58 61 63 63 62 60 58 55 51 47 43 39 35 31 28 25 26 28 30 33 36 40 44 48 52 54 56 56 57 57 57 57 56 56 57 59 60 61 63 64 65 65 65 66 66 67 66 66 64 62 60 58 56 54 52 50 46 45 48 52 55 57 58 59 60 61 61 59 57 55 54 52 50 47 45 45 48 51 53 54 57 59 63 66 68 68 69 69 69 69 69 69 69 68 68 68 68 68 68 68 67 66 64 61 60 60 61 62 61 61 60 60 60 60 60 60 61 62 64 66 67 68 68 68 68 69 69 69 69 69 68 68 67 67 67 67 67 68 68 68 68 68 68 68 68 68 70 70 70 70 71 71 72 72 72 72 72 72 72 72 71 71 70 70 70 69 69 69 69 70 70 71 71 71 71 70 69 69 69 69 69 70 71 71 71 71 71 71 70 69 68 68 67 67 66 66 65 65 64 64 63 63 62 61 61 60 60 60 60 60 59 59 58 58 57 57 56 56 55 55 55 55 55 54 54 54 54 54 54 54 54 53 53 53 54 55 56 58 59 60 60 -9999 -9999 -9999 -9999 -9999 -9999 -9999 -9999 -9999 -9999 -9999 -9999 -9999 -9999 -9999 -9999 -9999 -9999 -9999 -9999 -9999 -9999 -9999 -9999 -9999 -9999 -9999 -9999 -9999 -9999 -9999 -9999 -9999 -9999 -9999 -9999 -9999 -9999 -9999 -9999 -9999 -9999 -9999 -9999 -9999 -9999 -9999 -9999 -9999 -9999 -9999
-9999 -9999 -9999 -9999 -9999 -9999 -9999 -9999 -9999 -9999 -9999 -9999 -9999 -9999 -9999 -9999 -9999 -9999 -9999 -9999 -9999 -9999 -9999 -9999 -9999 -9999 -9999 -9999 -9999 -9999 -9999 -9999 -9999 -9999 -9999 -9999 -9999 -9999 -9999 -9999 -9999 -9999 -9999 -9999 -9999 -9999 -9999 -9999 -9999 -9999 -9999 -9999 -9999 -9999 -9999 -9999 -9999 -9999 -9999 -9999 -9999 -9999 -9999 -9999 -9999 -9999 -9999 -9999 -9999 -9999 -9999 -9999 -9999 -9999 -9999 -9999 -9999 -9999 -9999 -9999 -9999 -9999 -9999 -9999 -9999 -9999 -9999 -9999 -9999 -9999 -9999 -9999 -9999 -9999 -9999 -9999 -9999 -9999 -9999 -9999 -9999 -9999 -9999 -9999 -9999 -9999 -9999 -9999 -9999 -9999 -9999 -9999 -9999 -9999 -9999 -9999 -9999 -9999 -9999 -9999 -9999 -9999 -9999 -9999 -9999 -9999 -9999 -9999 -9999 -9999 -9999 -9999 -9999 -9999 -9999 -9999 -9999 -9999 -9999 -9999 -9999 -9999 -9999 -9999 -9999 -9999 -9999 -9999 -9999 -9999 -9999 10 19 22 24 25 25 24 22 20 19 18 18 19 22 25 28 30 31 31 32 33 34 34 34 33 32 32 31 31 32 33 35 36 38 39 41 42 43 44 43 43 42 42 41 41 42 43 44 46 50 53 56 57 59 59 58 57 55 52 48 43 38 34 31 28 26 25 25 27 28 31 35 38 43 47 51 53 55 55 56 56 56 56 56 56 58 59 60 62 64 65 65 66 66 67 67 67 66 65 64 62 60 58 56 54 52 48 45 47 52 55 57 59 59 60 60 60 58 56 54 52 51 48 44 45 48 51 53 54 56 58 60 64 66 68 68 68 69 69 69 69 69 68 68 67 67 68 68 68 67 67 67 65 63 60 60 61 61 61 60 60 59 59 59 60 60 61 62 63 65 66 67 67 67 68 68 68 68 68 67 66 66 66 65 65 66 66 66 67 67 67 66 66 66 67 67 68 69 70 70 71 71 72 72 72 72 71 71 71 71 71 71 70 70 69 69 69 69 69 70 70 71 71 71 70 70 69 69 68 68 68 69 70 70 71 71 71 71 70 69 68 68 67 67 67 66 66 65 65 64 64 63 63 62 61 61 61 61 61 60 60 59 59 58 58 57 57 56 56 55 55 55 54 54 54 54 53 53 53 54 54 53 53 53 53 54 56 58 60 61 60 -9999 -9999 -9999 -9999 -9999 -9999 -9999 -9999 -9999 -9999 -9999 -9999 -9999 -9999 -9999 -9999 -9999 -9999 -9999 -9999 -9999 -9999 -9999 -9999 -9999 -9999 -9999 -9999 -9999 -9999 -9999 -9999 -9999 -9999 -9999 -9999 -9999 -9999 -9999 -9999 -9999 -9999 -9999 -9999 -9999 -9999 -9999 -9999 -9999 -9999 -9999
-9999 -9999 -9999 -9999 -9999 -9999 -9999 -9999 -9999 -9999 -9999 -9999 -9999 -9999 -9999 -9999 -9999 -9999 -9999 -9999 -9999 -9999 -9999 -9999 -9999 -9999 -9999 -9999 -9999 -9999 -9999 -9999 -9999 -9999 -9999 -9999 -9999 -9999 -9999 -9999 -9999 -9999 -9999 -9999 -9999 -9999 -9999 -9999 -9999 -9999 -9999 -9999 -9999 -9999 -9999 -9999 -9999 -9999 -9999 -9999 -9999 -9999 -9999 -9999 -9999 -9999 -9999 -9999 -9999 -9999 -9999 -9999 -9999 -9999 -9999 -9999 -9999 -9999 -9999 -9999 -9999 -9999 -9999 -9999 -9999 -9999 -9999 -9999 -9999 -9999 -9999 -9999 -9999 -9999 -9999 -9999 -9999 -9999 -9999 -9999 -9999 -9999 -9999 -9999 -9999 -9999 -9999 -9999 -9999 -9999 -9999 -9999 -9999 -9999 -9999 -9999 -9999 -9999 -9999 -9999 -9999 -9999 -9999 -9999 -9999 -9999 -9999 -9999 -9999 -9999 -9999 -9999 -9999 -9999 -9999 -9999 -9999 -9999 -9999 -9999 -9999 -9999 -9999 -9999 -9999 -9999 -9999 -9999 -9999 -9999 -9999 12 20 22 23 24 23 20 18 16 15 15 -9999 15 18 20 22 23 24 24 25 26 27 27 27 27 27 27 27 28 29 30 31 32 34 35 36 37 38 38 38 38 38 38 38 39 40 40 41 43 46 48 51 53 54 55 56 56 55 52 49 44 39 35 32 29 26 24 24 24 25 27 30 33 38 42 47 50 53 54 55 55 55 55 55 56 57 58 60 62 64 65 66 66 66 67 67 66 66 66 65 63 61 60 58 56 54 51 46 46 51 55 57 58 59 60 60 58 55 53 51 50 49 45 43 47 51 53 54 55 56 58 61 64 66 67 68 68 68 68 68 68 68 68 67 67 67 67 67 67 67 67 67 67 65 62 61 61 61 61 60 60 59 59 59 59 60 60 61 62 64 66 66 66 67 67 67 67 67 66 65 65 65 65 64 65 65 65 65 65 65 65 65 65 65 66 66 67 68 69 70 71 72 72 73 72 72 71 71 71 71 71 71 70 70 69 69 69 69 69 70 70 70 71 71 70 70 69 68 68 67 67 68 69 70 70 70 70 70 70 69 68 68 67 67 66 66 66 65 65 64 64 64 63 62 62 61 61 62 61 61 60 60 59 59 59 58 58 57 57 56 55 55 55 54 54 53 53 53 53 53 53 53 52 52 53 54 55 58 60 61 61 -9999 -9999 -9999 -9999 -9999 -9999 -9999 -9999 -9999 -9999 -9999 -9999 -9999 -9999 -9999 -9999 -9999 -9999 -9999 -9999 -9999 -9999 -9999 -9999 -9999 -9999 -9999 -9999 -9999 -9999 -9999 -9999 -9999 -9999 -9999 -9999 -9999 -9999 -9999 -9999 -9999 -9999 -9999 -9999 -9999 -9999 -9999 -9999 -9999 -9999 -9999
-9999 -9999 -9999 -9999 -9999 -9999 -9999 -9999 -9999 -9999 -9999 -9999 -9999 -9999 -9999 -9999 -9999 -9999 -9999 -9999 -9999 -9999 -9999 -9999 -9999 -9999 -9999 -9999 -9999 -9999 -9999 -9999 -9999 -9999 -9999 -9999 -9999 -9999 -9999 -9999 -9999 -9999 -9999 -9999 -9999 -9999 -9999 -9999 -9999 -9999 -9999 -9999 -9999 -9999 -9999 -9999 -9999 -9999 -9999 -9999 -9999 -9999 -9999 -9999 -9999 -9999 -9999 -9999 -9999 -9999 -9999 -9999 -9999 -9999 -9999 -9999 -9999 -9999 -9999 -9999 -9999 -9999 -9999 -9999 -9999 -9999 -9999 -9999 -9999 -9999 -9999 -9999 -9999 -9999 -9999 -9999 -9999 -9999 -9999 -9999 -9999 -9999 -9999 -9999 -9999 -9999 -9999 -9999 -9999 -9999 -9999 -9999 -9999 -9999 -9999 -9999 -9999 -9999 -9999 -9999 -9999 -9999 -9999 -9999 -9999 -9999 -9999 -9999 -9999 -9999 -9999 -9999 -9999 -9999 -9999 -9999 -9999 -9999 -9999 -9999 -9999 -9999 -9999 -9999 -9999 -9999 -9999 -9999 -9999 -9999 9 17 20 22 23 23 20 18 16 15 -9999 -9999 -9999 -9999 -9999 -9999 17 17 18 18 19 20 21 21 22 22 22 23 23 24 25 26 27 29 30 31 32 33 33 33 33 34 35 35 35 36 37 37 38 39 42 44 46 48 50 52 53 54 53 52 49 44 39 35 32 29 26 24 23 23 23 24 26 29 33 38 43 47 51 53 54 54 55 55 55 55 56 57 59 62 64 65 66 66 67 67 66 66 66 65 64 63 62 61 58 56 54 51 47 46 49 53 55 57 58 60 60 57 53 50 48 47 46 44 45 50 54 55 55 56 57 59 61 63 65 66 67 68 68 68 68 68 68 67 67 67 67 67 67 67 67 67 68 67 66 64 63 62 62 62 61 60 59 59 59 59 60 60 61 62 63 65 66 66 66 67 67 67 66 65 64 64 64 64 64 64 64 65 65 65 65 64 64 64 64 65 65 66 67 69 70 71 72 73 73 72 71 70 70 70 70 70 70 70 70 69 69 69 69 69 70 70 70 70 70 70 69 69 68 67 67 67 67 68 69 69 69 70 70 69 69 68 67 67 66 66 66 66 65 65 64 64 64 64 63 62 62 62 62 62 61 61 60 60 60 59 59 58 58 57 57 56 55 55 54 54 54 53 53 52 52 52 51 51 51 52 53 55 57 59 60 60 -9999 -9999 -9999 -9999 -9999 -9999 -9999 -9999 -9999 -9999 -9999 -9999 -9999 -9999 -9999 -9999 -9999 -9999 -9999 -9999 -9999 -9999 -9999 -9999 -9999 -9999 -9999 -9999 -9999 -9999 -9999 -9999 -9999 -9999 -9999 -9999 -9999 -9999 -9999 -9999 -9999 -9999 -9999 -9999 -9999 -9999 -9999 -9999 -9999 -9999 -9999
-9999 -9999 -9999 -9999 -9999 -9999 -9999 -9999 -9999 -9999 -9999 -9999 -9999 -9999 -9999 -9999 -9999 -9999 -9999 -9999 -9999 -9999 -9999 -9999 -9999 -9999 -9999 -9999 -9999 -9999 -9999 -9999 -9999 -9999 -9999 -9999 -9999 -9999 -9999 -9999 -9999 -9999 -9999 -9999 -9999 -9999 -9999 -9999 -9999 -9999 -9999 -9999 -9999 -9999 -9999 -9999 -9999 -9999 -9999 -9999 -9999 -9999 -9999 -9999 -9999 -9999 -9999 -9999 -9999 -9999 -9999 -9999 -9999 -9999 -9999 -9999 -9999 -9999 -9999 -9999 -9999 -9999 -9999 -9999 -9999 -9999 -9999 -9999 -9999 -9999 -9999 -9999 -9999 -9999 -9999 -9999 -9999 -9999 -9999 -9999 -9999 -9999 -9999 -9999 -9999 -9999 -9999 -9999 -9999 -9999 -9999 -9999 -9999 -9999 -9999 -9999 -9999 -9999 -9999 -9999 -9999 -9999 -9999 -9999 -9999 -9999 -9999 -9999 -9999 -9999 -9999 -9999 -9999 -9999 -9999 -9999 -9999 -9999 -9999 -9999 -9999 -9999 -9999 -9999 -9999 -9999 -9999 -9999 -9999 -9999 10 18 19 20 21 21 18 17 -9999 -9999 -9999 -9999 -9999 -9999 -9999 -9999 -9999 11 13 14 14 15 15 16 17 17 18 18 19 20 21 22 23 25 26 27 28 29 30 30 30 31 31 32 32 33 33 34 35 36 38 40 42 44 46 48 50 50 51 50 48 44 40 36 33 29 27 25 23 22 22 23 24 26 29 34 40 45 49 51 52 53 54 54 54 54 55 57 59 62 64 65 66 66 67 66 66 65 65 64 64 63 62 60 58 56 54 51 47 45 48 50 52 54 57 59 59 55 50 47 46 45 44 43 46 52 55 56 56 56 57 58 60 62 64 66 66 67 67 67 67 67 67 67 67 67 67 67 67 67 67 67 68 67 67 66 64 63 63 62 62 61 60 59 59 59 59 60 60 61 63 64 65 66 66 66 67 66 65 64 63 63 63 63 63 63 64 64 64 64 64 64 64 63 64 64 65 66 67 68 70 71 72 72 72 72 71 70 69 69 70 70 70 70 69 69 69 69 69 69 70 70 70 70 70 70 69 69 68 67 66 66 66 67 68 68 69 69 69 69 68 68 67 66 66 66 66 65 65 65 65 64 64 64 63 63 62 62 62 62 61 61 60 60 60 59 59 59 58 58 57 57 56 55 55 55 54 53 52 52 51 51 50 50 50 50 52 53 56 58 59 60 -9999 -9999 -9999 -9999 -9999 -9999 -9999 -9999 -9999 -9999 -9999 -9999 -9999 -9999 -9999 -9999 -9999 -9999 -9999 -9999 -9999 -9999 -9999 -9999 -9999 -9999 -9999 -9999 -9999 -9999 -9999 -9999 -9999 -9999 -9999 -9999 -9999 -9999 -9999 -9999 -9999 -9999 -9999 -9999 -9999 -9999 -9999 -9999 -9999 -9999 -9999
-9999 -9999 -9999 -9999 -9999 -9999 -9999 -9999 -9999 -9999 -9999 -9999 -9999 -9999 -9999 -9999 -9999 -9999 -9999 -9999 -9999 -9999 -9999 -9999 -9999 -9999 -9999 -9999 -9999 -9999 -9999 -9999 -9999 -9999 -9999 -9999 -9999 -9999 -9999 -9999 -9999 -9999 -9999 -9999 -9999 -9999 -9999 -9999 -9999 -9999 -9999 -9999 -9999 -9999 -9999 -9999 -9999 -9999 -9999 -9999 -9999 -9999 -9999 -9999 -9999 -9999 -9999 -9999 -9999 -9999 -9999 -9999 -9999 -9999 -9999 -9999 -9999 -9999 -9999 -9999 -9999 -9999 -9999 -9999 -9999 -9999 -9999 -9999 -9999 -9999 -9999 -9999 -9999 -9999 -9999 -9999 -9999 -9999 -9999 -9999 -9999 -9999 -9999 -9999 -9999 -9999 -9999 -9999 -9999 -9999 -9999 -9999 -9999 -9999 -9999 -9999 -9999 -9999 -9999 -9999 -9999 -9999 -9999 -9999 -9999 -9999 -9999 -9999 -9999 -9999 -9999 -9999 -9999 -9999 -9999 -9999 -9999 -9999 -9999 -9999 -9999 -9999 -9999 -9999 -9999 -9999 -9999 -9999 -9999 -9999 10 16 17 18 18 18 -9999 -9999 -9999 -9999 -9999 -9999 -9999 -9999 -9999 -9999 -9999 -9999 10 10 11 11 11 12 12 13 14 15 16 17 17 18 19 21 22 23 25 26 26 27 27 28 28 29 29 30 30 31 31 32 34 36 38 40 42 43 45 46 47 47 46 44 41 37 34 31 28 25 24 23 22 22 23 24 27 32 38 43 47 50 51 52 53 53 54 54 56 58 60 62 64 65 66 66 66 66 65 65 64 64 63 62 61 60 58 55 53 50 46 45 46 48 50 52 55 57 57 53 47 44 43 43 43 43 46 52 55 56 56 56 57 58 59 61 63 65 65 66 66 66 66 67 67 67 67 67 67 67 67 67 67 67 67 67 67 66 65 64 64 63 62 62 61 60 59 59 59 60 60 61 62 64 65 66 66 66 66 66 65 64 63 62 62 62 62 62 63 64 64 64 64 63 63 63 63 64 65 65 67 68 70 71 72 72 72 71 70 69 69 69 69 69 69 69 69 69 68 68 69 69 69 70 70 70 70 69 69 68 68 67 66 66 66 66 67 67 68 68 68 68 68 67 67 66 66 66 66 66 65 65 65 65 64 64 63 63 63 63 62 62 61 61 60 60 60 59 59 59 58 58 57 57 56 56 56 55 55 54 53 52 51 51 50 50 49 49 50 52 54 56 58 59 60 -9999 -9999 -9999 -9999 -9999 -9999 -9999 -9999 -9999 -9999 -9999 -9999 -9999 -9999 -9999 -9999 -9999 -9999 -9999 -9999 -9999 -9999 -9999 -9999 -9999 -9999 -9999 -9999 -9999 -9999 -9999 -9999 -9999 -9999 -9999 -9999 -9999 -9999 -9999 -9999 -9999 -9999 -9999 -9999 -9999 -9999 -9999 -9999 -9999 -9999
-9999 -9999 -9999 -9999 -9999 -9999 -9999 -9999 -9999 -9999 -9999 -9999 -9999 -9999 -9999 -9999 -9999 -9999 -9999 -9999 -9999 -9999 -9999 -9999 -9999 -9999 -9999 -9999 -9999 -9999 -9999 -9999 -9999 -9999 -9999 -9999 -9999 -9999 -9999 -9999 -9999 -9999 -9999 -9999 -9999 -9999 -9999 -9999 -9999 -9999 -9999 -9999 -9999 -9999 -9999 -9999 -9999 -9999 -9999 -9999 -9999 -9999 -9999 -9999 -9999 -9999 -9999 -9999 -9999 -9999 -9999 -9999 -9999 -9999 -9999 -9999 -9999 -9999 -9999 -9999 -9999 -9999 -9999 -9999 -9999 -9999 -9999 -9999 -9999 -9999 -9999 -9999 -9999 -9999 -9999 -9999 -9999 -9999 -9999 -9999 -9999 -9999 -9999 -9999 -9999 -9999 -9999 -9999 -9999 -9999 -9999 -9999 -9999 -9999 -9999 -9999 -9999 -9999 -9999 -9999 -9999 -9999 -9999 -9999 -9999 -9999 -9999 -9999 -9999 -9999 -9999 -9999 -9999 -9999 -9999 -9999 -9999 -9999 -9999 -9999 -9999 -9999 -9999 -9999 -9999 -9999 -9999 -9999 -9999 -9999 11 15 15 15 15 -9999 -9999 -9999 -9999 -9999 -9999 -9999 -9999 -9999 -9999 -9999 -9999 -9999 -9999 8 8 8 8 8 9 10 10 12 13 13 14 15 16 17 19 20 21 22 23 24 25 25 26 26 27 27 27 28 28 29 31 32 34 35 37 39 40 41 42 43 43 43 41 38 35 32 29 26 25 24 23 22 22 24 27 32 37 42 46 49 50 51 52 53 54 55 57 59 61 63 64 65 65 66 66 65 65 64 64 63 62 62 60 59 57 54 51 49 46 44 44 46 48 50 52 55 55 52 46 42 41 41 41 42 46 51 54 55 56 56 57 57 58 60 62 64 65 65 65 65 66 66 67 67 66 66 67 67 67 67 67 67 67 67 67 66 65 65 64 64 63 62 61 60 59 59 59 59 60 61 62 63 65 65 66 66 66 65 64 63 62 62 61 61 61 61 63 63 64 64 64 63 63 62 63 63 64 65 67 68 69 70 71 71 71 71 70 69 68 68 68 69 69 69 69 68 68 68 68 68 69 69 70 70 70 69 69 68 67 67 66 65 65 65 66 66 67 67 68 68 68 67 67 66 66 66 66 66 65 65 65 65 64 64 64 63 63 63 63 62 61 61 60 60 59 59 59 58 58 58 57 57 57 56 56 56 55 55 53 52 51 51 50 50 49 49 49 50 51 53 55 57 58 -9999 -9999 -9999 -9999 -9999 -9999 -9999 -9999 -9999 -9999 -9999 -9999 -9999 -9999 -9999 -9999 -9999 -9999 -9999 -9999 -9999 -9999 -9999 -9999 -9999 -9999 -9999 -9999 -9999 -9999 -9999 -9999 -9999 -9999 -9999 -9999 -9999 -9999 -9999 -9999 -9999 -9999 -9999 -9999 -9999 -9999 -9999 -9999 -9999 -9999
-9999 -9999 -9999 -9999 -9999 -9999 -9999 -9999 -9999 -9999 -9999 -9999 -9999 -9999 -9999 -9999 -9999 -9999 -9999 -9999 -9999 -9999 -9999 -9999 -9999 -9999 -9999 -9999 -9999 -9999 -9999 -9999 -9999 -9999 -9999 -9999 -9999 -9999 -9999 -9999 -9999 -9999 -9999 -9999 -9999 -9999 -9999 -9999 -9999 -9999 -9999 -9999 -9999 -9999 -9999 -9999 -9999 -9999 -9999 -9999 -9999 -9999 -9999 -9999 -9999 -9999 -9999 -9999 -9999 -9999 -9999 -9999 -9999 -9999 -9999 -9999 -9999 -9999 -9999 -9999 -9999 -9999 -9999 -9999 -9999 -9999 -9999 -9999 -9999 -9999 -9999 -9999 -9999 -9999 -9999 -9999 -9999 -9999 -9999 -9999 -9999 -9999 -9999 -9999 -9999 -9999 -9999 -9999 -9999 -9999 -9999 -9999 -9999 -9999 -9999 -9999 -9999 -9999 -9999 -9999 -9999 -9999 -9999 -9999 -9999 -9999 -9999 -9999 -9999 -9999 -9999 -9999 -9999 -9999 -9999 -9999 -9999 -9999 -9999 -9999 -9999 -9999 -9999 -9999 -9999 -9999 -9999 -9999 -9999 -9999 -9999 -9999 12 12 -9999 -9999 -9999 -9999 -9999 -9999 -9999 -9999 -9999 -9999 -9999 -9999 -9999 -9999 -9999 -9999 -9999 5 6 6 7 7 8 9 9 10 11 12 13 14 16 17 19 20 21 22 22 23 23 24 25 25 25 25 26 26 28 29 30 32 33 34 35 36 37 38 39 40 40 39 36 34 31 28 26 25 24 23 22 23 27 33 37 42 45 48 49 50 51 52 54 56 58 60 62 64 64 65 65 65 65 64 64 64 63 63 62 61 60 58 56 53 50 48 45 43 43 45 46 48 50 52 53 51 45 41 40 40 40 41 44 48 52 54 54 55 56 56 57 59 61 63 65 65 64 64 65 66 66 66 66 66 66 67 67 67 67 67 67 67 66 66 65 65 65 64 63 63 62 61 60 59 59 59 60 61 62 63 64 65 65 65 65 64 63 62 62 61 61 61 60 61 63 64 64 64 64 63 62 62 62 63 64 65 66 68 69 70 71 71 71 70 69 68 68 68 68 68 68 68 68 68 68 68 68 68 68 69 69 69 69 69 69 68 67 66 66 65 65 65 65 66 66 67 67 67 67 67 67 67 66 66 66 66 66 65 65 65 64 64 64 63 63 63 63 62 61 60 60 59 59 58 58 58 58 58 57 57 57 56 56 56 56 55 54 53 52 51 51 50 50 49 49 49 49 50 52 54 56 -9999 -9999 -9999 -9999 -9999 -9999 -9999 -9999 -9999 -9999 -9999 -9999 -9999 -9999 -9999 -9999 -9999 -9999 -9999 -9999 -9999 -9999 -9999 -9999 -9999 -9999 -9999 -9999 -9999 -9999 -9999 -9999 -9999 -9999 -9999 -9999 -9999 -9999 -9999 -9999 -9999 -9999 -9999 -9999 -9999 -9999 -9999 -9999 -9999 -9999
-9999 -9999 -9999 -9999 -9999 -9999 -9999 -9999 -9999 -9999 -9999 -9999 -9999 -9999 -9999 -9999 -9999 -9999 -9999 -9999 -9999 -9999 -9999 -9999 -9999 -9999 -9999 -9999 -9999 -9999 -9999 -9999 -9999 -9999 -9999 -9999 -9999 -9999 -9999 -9999 -9999 -9999 -9999 -9999 -9999 -9999 -9999 -9999 -9999 -9999 -9999 -9999 -9999 -9999 -9999 -9999 -9999 -9999 -9999 -9999 -9999 -9999 -9999 -9999 -9999 -9999 -9999 -9999 -9999 -9999 -9999 -9999 -9999 -9999 -9999 -9999 -9999 -9999 -9999 -9999 -9999 -9999 -9999 -9999 -9999 -9999 -9999 -9999 -9999 -9999 -9999 -9999 -9999 -9999 -9999 -9999 -9999 -9999 -9999 -9999 -9999 -9999 -9999 -9999 -9999 -9999 -9999 -9999 -9999 -9999 -9999 -9999 -9999 -9999 -9999 -9999 -9999 -9999 -9999 -9999 -9999 -9999 -9999 -9999 -9999 -9999 -9999 -9999 -9999 -9999 -9999 -9999 -9999 -9999 -9999 -9999 -9999 -9999 -9999 -9999 -9999 -9999 -9999 -9999 -9999 -9999 -9999 -9999 -9999 -9999 -9999 -9999 -9999 -9999 -9999 -9999 -9999 -9999 -9999 -9999 -9999 -9999 -9999 -9999 -9999 -9999 -9999 -9999 -9999 -9999 -9999 -9999 4 5 6 6 7 8 8 9 10 10 11 13 14 15 17 17 19 20 20 21 21 22 22 23 23 24 24 24 25 26 27 28 29 30 30 31 32 34 36 37 38 38 37 35 32 29 27 26 24 23 22 23 28 34 38 41 44 47 49 49 50 52 54 57 59 61 63 64 64 65 65 64 63 63 63 63 63 62 61 60 59 58 56 52 49 47 45 43 42 43 45 47 49 50 52 51 46 42 39 39 39 41 43 46 49 51 52 53 54 55 56 58 60 62 64 64 64 64 64 65 66 66 66 66 66 66 66 66 66 66 66 66 66 66 65 65 65 64 64 63 62 61 60 59 59 59 59 60 61 62 64 64 65 65 64 64 63 62 62 61 61 60 60 61 63 64 65 65 64 63 62 62 62 62 63 64 66 67 69 69 70 70 70 70 69 68 67 67 67 67 67 67 68 68 68 68 68 68 68 68 68 68 68 68 68 68 67 66 65 65 65 65 65 65 66 66 66 67 67 67 67 67 66 66 66 66 66 65 65 65 65 64 64 63 63 63 63 62 61 60 60 59 58 58 58 58 58 58 57 57 57 57 56 56 56 55 55 54 53 52 51 50 50 49 49 49 49 49 50 52 53 -9999 -9999 -9999 -9999 -9999 -9999 -9999 -9999 -9999 -9999 -9999 -9999 -9999 -9999 -9999 -9999 -9999 -9999 -9999 -9999 -9999 -9999 -9999 -9999 -9999 -9999 -9999 -9999 -9999 -9999 -9999 -9999 -9999 -9999 -9999 -9999 -9999 -9999 -9999 -9999 -9999 -9999 -9999 -9999 -9999 -9999 -9999 -9999 -9999 -9999
-9999 -9999 -9999 -9999 -9999 -9999 -9999 -9999 -9999 -9999 -9999 -9999 -9999 -9999 -9999 -9999 -9999 -9999 -9999 -9999 -9999 -9999 -9999 -9999 -9999 -9999 -9999 -9999 -9999 -9999 -9999 -9999 -9999 -9999 -9999 -9999 -9999 -9999 -9999 -9999 -9999 -9999 -9999 -9999 -9999 -9999 -9999 -9999 -9999 -9999 -9999 -9999 -9999 -9999 -9999 -9999 -9999 -9999 -9999 -9999 -9999 -9999 -9999 -9999 -9999 -9999 -9999 -9999 -9999 -9999 -9999 -9999 -9999 -9999 -9999 -9999 -9999 -9999 -9999 -9999 -9999 -9999 -9999 -9999 -9999 -9999 -9999 -9999 -9999 -9999 -9999 -9999 -9999 -9999 -9999 -9999 -9999 -9999 -9999 -9999 -9999 -9999 -9999 -9999 -9999 -9999 -9999 -9999 -9999 -9999 -9999 -9999 -9999 -9999 -9999 -9999 -9999 -9999 -9999 -9999 -9999 -9999 -9999 -9999 -9999 -9999 -9999 -9999 -9999 -9999 -9999 -9999 -9999 -9999 -9999 -9999 -9999 -9999 -9999 -9999 -9999 -9999 -9999 -9999 -9999 -9999 -9999 -9999 -9999 -9999 -9999 -9999 -9999 -9999 -9999 -9999 -9999 -9999 -9999 -9999 -9999 -9999 -9999 -9999 -9999 -9999 -9999 -9999 -9999 -9999 -9999 -9999 -9999 -9999 5 6 7 7 8 9 10 10 11 12 13 14 15 16 17 17 18 18 19 20 21 21 22 22 22 23 24 25 25 26 26 26 27 28 29 31 33 34 36 36 36 35 33 31 29 27 26 24 22 23 28 35 38 41 44 46 48 48 49 51 54 57 60 62 63 64 64 64 63 62 62 61 61 62 62 61 60 59 59 58 56 53 49 47 44 42 42 43 44 45 47 49 51 51 48 43 39 38 39 40 42 43 45 47 49 50 51 53 54 56 58 61 63 63 63 64 64 65 65 65 65 65 66 66 66 66 66 66 66 66 65 65 65 65 65 64 63 63 62 61 60 59 59 59 59 60 61 62 63 64 64 64 64 63 62 62 61 61 61 60 61 62 64 65 65 65 65 64 62 61 61 62 63 64 66 67 68 69 69 69 69 69 69 68 67 67 66 66 67 67 67 67 68 68 68 67 67 67 67 68 68 68 68 67 67 66 65 65 65 64 64 65 65 65 66 66 67 67 67 66 66 66 66 66 66 66 65 65 65 64 64 63 63 63 63 62 61 60 59 59 58 58 58 58 58 58 57 57 57 57 56 56 56 55 55 54 54 53 52 51 50 49 49 48 49 49 49 50 50 -9999 -9999 -9999 -9999 -9999 -9999 -9999 -9999 -9999 -9999 -9999 -9999 -9999 -9999 -9999 -9999 -9999 -9999 -9999 -9999 -9999 -9999 -9999 -9999 -9999 -9999 -9999 -9999 -9999 -9999 -9999 -9999 -9999 -9999 -9999 -9999 -9999 -9999 -9999 -9999 -9999 -9999 -9999 -9999 -9999 -9999 -9999 -9999 -9999 -9999
-9999 -9999 -9999 -9999 -9999 -9999 -9999 -9999 -9999 -9999 -9999 -9999 -9999 -9999 -9999 -9999 -9999 -9999 -9999 -9999 -9999 -9999 -9999 -9999 -9999 -9999 -9999 -9999 -9999 -9999 -9999 -9999 -9999 -9999 -9999 -9999 -9999 -9999 -9999 -9999 -9999 -9999 -9999 -9999 -9999 -9999 -9999 -9999 -9999 -9999 -9999 -9999 -9999 -9999 -9999 -9999 -9999 -9999 -9999 -9999 -9999 -9999 -9999 -9999 -9999 -9999 -9999 -9999 -9999 -9999 -9999 -9999 -9999 -9999 -9999 -9999 -9999 -9999 -9999 -9999 -9999 -9999 -9999 -9999 -9999 -9999 -9999 -9999 -9999 -9999 -9999 -9999 -9999 -9999 -9999 -9999 -9999 -9999 -9999 -9999 -9999 -9999 -9999 -9999 -9999 -9999 -9999 -9999 -9999 -9999 -9999 -9999 -9999 -9999 -9999 -9999 -9999 -9999 -9999 -9999 -9999 -9999 -9999 -9999 -9999 -9999 -9999 -9999 -9999 -9999 -9999 -9999 -9999 -9999 -9999 -9999 -9999 -9999 -9999 -9999 -9999 -9999 -9999 -9999 -9999 -9999 -9999 -9999 -9999 -9999 -9999 -9999 -9999 -9999 -9999 -9999 -9999 -9999 -9999 -9999 -9999 -9999 -9999 -9999 -9999 -9999 -9999 -9999 -9999 -9999 -9999 -9999 -9999 -9999 4 5 6 7 8 9 10 10 11 11 12 13 13 14 15 15 16 16 17 17 18 19 20 21 21 21 22 23 24 24 24 24 24 25 26 27 30 32 33 34 34 33 32 31 29 28 27 24 22 23 30 36 39 41 43 45 46 48 48 51 55 58 60 62 63 63 63 63 62 61 60 59 60 60 61 60 60 59 58 58 57 54 50 47 44 42 42 42 43 45 47 49 50 51 49 45 40 37 38 40 41 41 43 44 45 47 48 50 52 54 57 59 61 62 63 63 64 65 65 65 65 65 65 65 65 65 65 65 65 65 65 65 65 65 65 64 63 62 61 61 60 59 59 58 59 59 60 61 62 63 63 63 63 63 62 61 61 61 60 60 61 63 64 65 66 66 65 63 62 61 61 61 62 63 65 67 68 68 69 69 69 69 68 68 67 66 66 66 66 66 66 67 67 67 67 67 67 67 67 67 67 67 67 67 66 66 65 65 65 64 64 64 64 65 65 66 66 66 66 66 66 66 66 66 66 65 65 65 64 64 63 63 63 62 62 62 61 60 60 59 59 58 58 58 58 58 58 57 57 56 56 56 55 55 55 54 54 54 52 51 50 50 49 48 48 49 49 49 49 48 -9999 -9999 -9999 -9999 -9999 -9999 -9999 -9999 -9999 -9999 -9999 -9999 -9999 -9999 -9999 -9999 -9999 -9999 -9999 -9999 -9999 -9999 -9999 -9999 -9999 -9999 -9999 -9999 -9999 -9999 -9999 -9999 -9999 -9999 -9999 -9999 -9999 -9999 -9999 -9999 -9999 -9999 -9999 -9999 -9999 -9999 -9999 -9999 -9999
-9999 -9999 -9999 -9999 -9999 -9999 -9999 -9999 -9999 -9999 -9999 -9999 -9999 -9999 -9999 -9999 -9999 -9999 -9999 -9999 -9999 -9999 -9999 -9999 -9999 -9999 -9999 -9999 -9999 -9999 -9999 -9999 -9999 -9999 -9999 -9999 -9999 -9999 -9999 -9999 -9999 -9999 -9999 -9999 -9999 -9999 -9999 -9999 -9999 -9999 -9999 -9999 -9999 -9999 -9999 -9999 -9999 -9999 -9999 -9999 -9999 -9999 -9999 -9999 -9999 -9999 -9999 -9999 -9999 -9999 -9999 -9999 -9999 -9999 -9999 -9999 -9999 -9999 -9999 -9999 -9999 -9999 -9999 -9999 -9999 -9999 -9999 -9999 -9999 -9999 -9999 -9999 -9999 -9999 -9999 -9999 -9999 -9999 -9999 -9999 -9999 -9999 -9999 -9999 -9999 -9999 -9999 -9999 -9999 -9999 -9999 -9999 -9999 -9999 -9999 -9999 -9999 -9999 -9999 -9999 -9999 -9999 -9999 -9999 -9999 -9999 -9999 -9999 -9999 -9999 -9999 -9999 -9999 -9999 -9999 -9999 -9999 -9999 -9999 -9999 -9999 -9999 -9999 -9999 -9999 -9999 -9999 -9999 -9999 -9999 -9999 -9999 -9999 -9999 -9999 -9999 -9999 -9999 -9999 -9999 -9999 -9999 -9999 -9999 -9999 -9999 -9999 -9999 -9999 -9999 -9999 -9999 -9999 -9999 -9999 4 5 6 7 8 9 10 11 11 11 12 12 13 13 14 14 15 15 15 16 17 18 19 19 20 21 22 23 23 22 22 22 23 23 24 26 28 30 31 31 31 30 29 28 28 25 23 22 26 32 37 39 41 43 44 46 47 48 50 54 57 60 62 62 63 63 62 60 59 58 58 58 59 59 59 59 58 58 58 58 55 51 48 45 43 41 42 43 44 46 49 50 50 49 45 40 37 39 41 41 40 41 42 44 45 47 48 50 53 55 58 60 61 62 63 64 65 65 65 65 64 64 64 65 65 64 64 65 65 65 65 65 65 64 64 63 62 61 60 59 59 58 58 58 59 59 60 61 62 63 63 63 62 62 61 61 60 60 60 61 63 64 65 65 65 64 63 61 60 60 61 61 63 64 66 67 68 68 68 68 68 68 67 67 66 65 65 65 66 66 66 67 67 67 67 67 66 66 66 67 67 67 66 66 66 65 65 65 64 64 64 64 64 65 65 66 66 66 66 66 65 65 65 65 65 65 65 65 64 63 63 62 62 62 61 61 60 60 59 59 59 59 59 58 58 58 57 56 56 55 55 55 54 54 54 54 54 53 52 51 50 49 49 49 49 49 49 48 48 -9999 -9999 -9999 -9999 -9999 -9999 -9999 -9999 -9999 -9999 -9999 -9999 -9999 -9999 -9999 -9999 -9999 -9999 -9999 -9999 -9999 -9999 -9999 -9999 -9999 -9999 -9999 -9999 -9999 -9999 -9999 -9999 -9999 -9999 -9999 -9999 -9999 -9999 -9999 -9999 -9999 -9999 -9999 -9999 -9999 -9999 -9999 -9999 -9999
-9999 -9999 -9999 -9999 -9999 -9999 -9999 -9999 -9999 -9999 -9999 -9999 -9999 -9999 -9999 -9999 -9999 -9999 -9999 -9999 -9999 -9999 -9999 -9999 -9999 -9999 -9999 -9999 -9999 -9999 -9999 -9999 -9999 -9999 -9999 -9999 -9999 -9999 -9999 -9999 -9999 -9999 -9999 -9999 -9999 -9999 -9999 -9999 -9999 -9999 -9999 -9999 -9999 -9999 -9999 -9999 -9999 -9999 -9999 -9999 -9999 -9999 -9999 -9999 -9999 -9999 -9999 -9999 -9999 -9999 -9999 -9999 -9999 -9999 -9999 -9999 -9999 -9999 -9999 -9999 -9999 -9999 -9999 -9999 -9999 -9999 -9999 -9999 -9999 -9999 -9999 -9999 -9999 -9999 -9999 -9999 -9999 -9999 -9999 -9999 -9999 -9999 -9999 -9999 -9999 -9999 -9999 -9999 -9999 -9999 -9999 -9999 -9999 -9999 -9999 -9999 -9999 -9999 -9999 -9999 -9999 -9999 -9999 -9999 -9999 -9999 -9999 -9999 -9999 -9999 -9999 -9999 -9999 -9999 -9999 -9999 -9999 -9999 -9999 -9999 -9999 -9999 -9999 -9999 -9999 -9999 -9999 -9999 -9999 -9999 -9999 -9999 -9999 -9999 -9999 -9999 -9999 -9999 -9999 -9999 -9999 -9999 -9999 -9999 -9999 -9999 -9999 -9999 -9999 -9999 -9999 -9999 -9999 -9999 -9999 3 4 5 6 8 9 10 10 11 11 11 12 12 13 13 14 14 13 13 14 14 15 16 17 18 19 21 22 21 21 21 20 21 22 22 23 25 26 27 27 27 27 27 26 25 23 21 23 29 36 38 40 41 42 43 46 47 47 49 52 56 59 61 61 62 62 61 59 58 57 57 57 57 57 57 58 58 58 58 58 56 53 50 47 45 43 42 43 44 46 48 50 49 48 44 40 38 39 41 40 40 40 42 43 45 46 47 49 52 55 58 60 61 62 63 64 65 65 65 64 64 64 64 64 64 64 64 64 64 64 65 65 65 64 64 63 62 61 60 59 58 58 58 57 58 58 59 60 62 62 62 62 62 61 61 60 60 60 60 61 63 64 65 65 64 64 62 61 60 60 60 60 62 63 65 66 67 68 68 68 68 68 67 66 66 65 65 65 65 66 66 66 66 67 66 66 66 66 66 66 66 66 66 66 65 65 65 64 64 64 63 63 64 64 65 65 66 66 65 65 65 65 65 65 65 65 65 65 64 63 63 62 62 62 61 61 60 60 59 59 59 59 59 59 58 57 57 56 55 55 55 54 54 54 54 54 54 53 52 51 51 50 49 49 49 49 49 48 48 -9999 -9999 -9999 -9999 -9999 -9999 -9999 -9999 -9999 -9999 -9999 -9999 -9999 -9999 -9999 -9999 -9999 -9999 -9999 -9999 -9999 -9999 -9999 -9999 -9999 -9999 -9999 -9999 -9999 -9999 -9999 -9999 -9999 -9999 -9999 -9999 -9999 -9999 -9999 -9999 -9999 -9999 -9999 -9999 -9999 -9999 -9999 -9999 -9999
-9999 -9999 -9999 -9999 -9999 -9999 -9999 -9999 -9999 -9999 -9999 -9999 -9999 -9999 -9999 -9999 -9999 -9999 -9999 -9999 -9999 -9999 -9999 -9999 -9999 -9999 -9999 -9999 -9999 -9999 -9999 -9999 -9999 -9999 -9999 -9999 -9999 -9999 -9999 -9999 -9999 -9999 -9999 -9999 -9999 -9999 -9999 -9999 -9999 -9999 -9999 -9999 -9999 -9999 -9999 -9999 -9999 -9999 -9999 -9999 -9999 -9999 -9999 -9999 -9999 -9999 -9999 -9999 -9999 -9999 -9999 -9999 -9999 -9999 -9999 -9999 -9999 -9999 -9999 -9999 -9999 -9999 -9999 -9999 -9999 -9999 -9999 -9999 -9999 -9999 -9999 -9999 -9999 -9999 -9999 -9999 -9999 -9999 -9999 -9999 -9999 -9999 -9999 -9999 -9999 -9999 -9999 -9999 -9999 -9999 -9999 -9999 -9999 -9999 -9999 -9999 -9999 -9999 -9999 -9999 -9999 -9999 -9999 -9999 -9999 -9999 -9999 -9999 -9999 -9999 -9999 -9999 -9999 -9999 -9999 -9999 -9999 -9999 -9999 -9999 -9999 -9999 -9999 -9999 -9999 -9999 -9999 -9999 -9999 -9999 -9999 -9999 -9999 -9999 -9999 -9999 -9999 -9999 -9999 -9999 -9999 -9999 -9999 -9999 -9999 -9999 -9999 -9999 -9999 -9999 -9999 -9999 -9999 -9999 -9999 -9999 3 4 5 7 8 9 10 10 10 11 11 12 12 13 13 13 13 13 12 12 13 15 16 17 19 20 21 21 20 19 19 19 19 20 21 21 22 23 23 23 23 23 23 22 21 22 26 32 36 38 39 40 40 42 46 47 46 47 50 54 57 59 60 61 61 60 58 57 56 56 55 55 55 56 57 58 59 59 59 58 56 53 51 48 46 45 44 45 46 47 49 49 47 44 41 39 39 40 40 40 40 42 43 45 46 47 50 53 56 58 60 62 62 63 64 65 65 64 64 64 63 63 63 63 63 63 63 64 64 65 65 65 64 63 63 62 61 60 59 58 58 57 57 57 58 58 60 61 61 62 62 61 61 60 60 60 60 61 61 63 63 64 64 63 63 62 60 59 59 59 60 61 62 64 65 66 67 68 68 68 68 67 66 65 64 64 65 65 65 65 66 66 66 66 66 66 65 65 65 65 65 65 65 65 65 65 64 64 64 63 63 63 64 64 65 65 65 65 65 65 65 65 65 66 66 65 65 64 64 63 62 62 61 61 60 60 60 59 59 59 59 59 59 58 58 57 56 55 55 55 54 54 54 54 54 54 54 53 52 51 50 50 49 49 49 49 48 48 -9999 -9999 -9999 -9999 -9999 -9999 -9999 -9999 -9999 -9999 -9999 -9999 -9999 -9999 -9999 -9999 -9999 -9999 -9999 -9999 -9999 -9999 -9999 -9999 -9999 -9999 -9999 -9999 -9999 -9999 -9999 -9999 -9999 -9999 -9999 -9999 -9999 -9999 -9999 -9999 -9999 -9999 -9999 -9999 -9999 -9999 -9999 -9999 -9999
-9999 -9999 -9999 -9999 -9999 -9999 -9999 -9999 -9999 -9999 -9999 -9999 -9999 -9999 -9999 -9999 -9999 -9999 -9999 -9999 -9999 -9999 -9999 -9999 -9999 -9999 -9999 -9999 -9999 -9999 -9999 -9999 -9999 -9999 -9999 -9999 -9999 -9999 -9999 -9999 -9999 -9999 -9999 -9999 -9999 -9999 -9999 -9999 -9999 -9999 -9999 -9999 -9999 -9999 -9999 -9999 -9999 -9999 -9999 -9999 -9999 -9999 -9999 -9999 -9999 -9999 -9999 -9999 -9999 -9999 -9999 -9999 -9999 -9999 -9999 -9999 -9999 -9999 -9999 -9999 -9999 -9999 -9999 -9999 -9999 -9999 -9999 -9999 -9999 -9999 -9999 -9999 -9999 -9999 -9999 -9999 -9999 -9999 -9999 -9999 -9999 -9999 -9999 -9999 -9999 -9999 -9999 -9999 -9999 -9999 -9999 -9999 -9999 -9999 -9999 -9999 -9999 -9999 -9999 -9999 -9999 -9999 -9999 -9999 -9999 -9999 -9999 -9999 -9999 -9999 -9999 -9999 -9999 -9999 -9999 -9999 -9999 -9999 -9999 -9999 -9999 -9999 -9999 -9999 -9999 -9999 -9999 -9999 -9999 -9999 -9999 -9999 -9999 -9999 -9999 -9999 -9999 -9999 -9999 -9999 -9999 -9999 -9999 -9999 -9999 -9999 -9999 -9999 -9999 -9999 -9999 -9999 -9999 -9999 -9999 -9999 -9999 3 4 5 7 8 9 9 10 10 11 11 12 13 13 13 13 13 13 12 13 14 15 17 18 19 20 20 19 18 18 17 17 18 18 18 19 19 19 20 20 20 20 21 22 24 29 33 36 37 38 39 40 43 46 46 45 45 48 51 55 57 59 59 59 59 57 56 56 55 54 53 54 55 57 58 59 60 60 60 59 57 55 53 51 49 48 47 46 47 48 48 46 44 41 39 39 40 40 40 40 41 43 45 46 49 51 54 57 60 62 63 63 64 64 65 65 64 64 63 63 63 63 63 63 63 63 63 64 64 65 65 64 64 63 62 61 61 59 58 58 57 57 57 57 58 59 60 61 61 61 61 60 60 60 60 60 60 61 62 63 63 63 63 62 61 60 59 58 58 59 59 61 62 64 66 67 68 68 68 68 67 66 65 64 64 64 64 65 65 65 65 66 66 65 65 65 65 65 65 65 65 65 65 65 64 64 64 63 63 63 63 64 64 64 65 65 64 64 64 65 65 65 66 66 65 65 64 64 63 63 62 61 61 60 60 59 59 59 59 59 59 59 58 58 57 56 56 55 55 54 54 54 54 54 54 54 53 52 52 51 50 50 50 49 49 49 48 -9999 -9999 -9999 -9999 -9999 -9999 -9999 -9999 -9999 -9999 -9999 -9999 -9999 -9999 -9999 -9999 -9999 -9999 -9999 -9999 -9999 -9999 -9999 -9999 -9999 -9999 -9999 -9999 -9999 -9999 -9999 -9999 -9999 -9999 -9999 -9999 -9999 -9999 -9999 -9999 -9999 -9999 -9999 -9999 -9999 -9999 -9999 -9999 -9999
-9999 -9999 -9999 -9999 -9999 -9999 -9999 -9999 -9999 -9999 -9999 -9999 -9999 -9999 -9999 -9999 -9999 -9999 -9999 -9999 -9999 -9999 -9999 -9999 -9999 -9999 -9999 -9999 -9999 -9999 -9999 -9999 -9999 -9999 -9999 -9999 -9999 -9999 -9999 -9999 -9999 -9999 -9999 -9999 -9999 -9999 -9999 -9999 -9999 -9999 -9999 -9999 -9999 -9999 -9999 -9999 -9999 -9999 -9999 -9999 -9999 -9999 -9999 -9999 -9999 -9999 -9999 -9999 -9999 -9999 -9999 -9999 -9999 -9999 -9999 -9999 -9999 -9999 -9999 -9999 -9999 -9999 -9999 -9999 -9999 -9999 -9999 -9999 -9999 -9999 -9999 -9999 -9999 -9999 -9999 -9999 -9999 -9999 -9999 -9999 -9999 -9999 -9999 -9999 -9999 -9999 -9999 -9999 -9999 -9999 -9999 -9999 -9999 -9999 -9999 -9999 -9999 -9999 -9999 -9999 -9999 -9999 -9999 -9999 -9999 -9999 -9999 -9999 -9999 -9999 -9999 -9999 -9999 -9999 -9999 -9999 -9999 -9999 -9999 -9999 -9999 -9999 -9999 -9999 -9999 -9999 -9999 -9999 -9999 -9999 -9999 -9999 -9999 -9999 -9999 -9999 -9999 -9999 -9999 -9999 -9999 -9999 -9999 -9999 -9999 -9999 -9999 -9999 -9999 -9999 -9999 -9999 -9999 -9999 -9999 -9999 -9999 2 3 4 5 6 7 8 9 10 10 11 12 13 14 14 14 15 15 14 14 14 15 17 18 19 20 20 19 18 17 15 15 15 16 17 17 17 17 18 19 20 19 20 22 25 30 33 35 36 37 39 41 44 46 45 43 44 45 49 53 55 57 58 58 58 57 56 55 54 53 53 53 55 57 59 60 61 62 62 62 61 60 58 56 54 52 50 48 47 46 46 45 43 41 40 39 39 40 40 41 42 44 46 48 50 53 56 59 61 63 64 64 64 64 64 64 64 63 63 63 63 63 62 62 63 63 63 64 64 65 64 64 64 63 63 62 61 60 59 58 58 57 57 57 58 58 59 60 60 60 60 60 60 60 59 60 60 61 61 62 62 62 62 61 60 59 58 58 58 58 59 60 62 64 65 67 67 68 68 68 67 66 65 64 64 64 64 64 64 65 65 65 65 65 64 64 64 64 64 64 64 64 64 64 64 64 64 63 63 63 63 63 64 64 64 64 64 64 64 64 65 65 65 65 65 65 64 64 63 63 62 61 61 60 60 59 59 59 59 59 59 59 58 58 57 57 56 55 55 54 54 54 54 54 54 54 54 53 52 52 51 51 50 50 49 49 48 -9999 -9999 -9999 -9999 -9999 -9999 -9999 -9999 -9999 -9999 -9999 -9999 -9999 -9999 -9999 -9999 -9999 -9999 -9999 -9999 -9999 -9999 -9999 -9999 -9999 -9999 -9999 -9999 -9999 -9999 -9999 -9999 -9999 -9999 -9999 -9999 -9999 -9999 -9999 -9999 -9999 -9999 -9999 -9999 -9999 -9999 -9999 -9999 -9999
-9999 -9999 -9999 -9999 -9999 -9999 -9999 -9999 -9999 -9999 -9999 -9999 -9999 -9999 -9999 -9999 -9999 -9999 -9999 -9999 -9999 -9999 -9999 -9999 -9999 -9999 -9999 -9999 -9999 -9999 -9999 -9999 -9999 -9999 -9999 -9999 -9999 -9999 -9999 -9999 -9999 -9999 -9999 -9999 -9999 -9999 -9999 -9999 -9999 -9999 -9999 -9999 -9999 -9999 -9999 -9999 -9999 -9999 -9999 -9999 -9999 -9999 -9999 -9999 -9999 -9999 -9999 -9999 -9999 -9999 -9999 -9999 -9999 -9999 -9999 -9999 -9999 -9999 -9999 -9999 -9999 -9999 -9999 -9999 -9999 -9999 -9999 -9999 -9999 -9999 -9999 -9999 -9999 -9999 -9999 -9999 -9999 -9999 -9999 -9999 -9999 -9999 -9999 -9999 -9999 -9999 -9999 -9999 -9999 -9999 -9999 -9999 -9999 -9999 -9999 -9999 -9999 -9999 -9999 -9999 -9999 -9999 -9999 -9999 -9999 -9999 -9999 -9999 -9999 -9999 -9999 -9999 -9999 -9999 -9999 -9999 -9999 -9999 -9999 -9999 -9999 -9999 -9999 -9999 -9999 -9999 -9999 -9999 -9999 -9999 -9999 -9999 -9999 -9999 -9999 -9999 -9999 -9999 -9999 -9999 -9999 -9999 -9999 -9999 -9999 -9999 -9999 -9999 -9999 -9999 -9999 -9999 -9999 -9999 -9999 -9999 -9999 -9999 2 3 4 5 6 7 8 9 10 11 12 13 14 15 16 16 16 16 15 15 16 17 18 19 20 19 19 18 16 15 14 13 14 16 16 16 17 18 18 18 18 18 22 26 29 32 35 36 38 39 42 45 45 42 41 42 43 46 50 53 55 56 56 56 56 55 54 53 52 52 53 55 56 58 60 62 63 64 65 65 65 63 61 58 56 53 50 47 45 43 42 41 41 40 40 40 41 41 43 44 46 49 51 53 55 57 59 61 63 64 64 64 64 64 64 64 63 63 62 62 62 62 62 62 63 63 64 64 64 64 64 64 64 64 63 62 61 60 59 58 58 57 57 57 58 58 59 59 60 60 60 60 59 59 59 60 60 60 61 61 61 61 61 59 58 58 57 57 58 58 60 61 63 65 66 67 67 67 67 66 65 64 64 63 63 64 64 64 64 64 65 64 64 64 63 63 63 63 64 64 64 64 64 64 64 64 63 63 63 63 63 63 63 63 63 63 63 63 64 64 64 65 65 65 64 64 63 63 62 62 61 61 60 59 59 59 58 58 58 58 59 58 58 58 57 56 55 55 55 55 55 55 55 54 54 54 53 53 52 52 51 51 50 50 49 48 47 -9999 -9999 -9999 -9999 -9999 -9999 -9999 -9999 -9999 -9999 -9999 -9999 -9999 -9999 -9999 -9999 -9999 -9999 -9999 -9999 -9999 -9999 -9999 -9999 -9999 -9999 -9999 -9999 -9999 -9999 -9999 -9999 -9999 -9999 -9999 -9999 -9999 -9999 -9999 -9999 -9999 -9999 -9999 -9999 -9999 -9999 -9999 -9999
-9999 -9999 -9999 -9999 -9999 -9999 -9999 -9999 -9999 -9999 -9999 -9999 -9999 -9999 -9999 -9999 -9999 -9999 -9999 -9999 -9999 -9999 -9999 -9999 -9999 -9999 -9999 -9999 -9999 -9999 -9999 -9999 -9999 -9999 -9999 -9999 -9999 -9999 -9999 -9999 -9999 -9999 -9999 -9999 -9999 -9999 -9999 -9999 -9999 -9999 -9999 -9999 -9999 -9999 -9999 -9999 -9999 -9999 -9999 -9999 -9999 -9999 -9999 -9999 -9999 -9999 -9999 -9999 -9999 -9999 -9999 -9999 -9999 -9999 -9999 -9999 -9999 -9999 -9999 -9999 -9999 -9999 -9999 -9999 -9999 -9999 -9999 -9999 -9999 -9999 -9999 -9999 -9999 -9999 -9999 -9999 -9999 -9999 -9999 -9999 -9999 -9999 -9999 -9999 -9999 -9999 -9999 -9999 -9999 -9999 -9999 -9999 -9999 -9999 -9999 -9999 -9999 -9999 -9999 -9999 -9999 -9999 -9999 -9999 -9999 -9999 -9999 -9999 -9999 -9999 -9999 -9999 -9999 -9999 -9999 -9999 -9999 -9999 -9999 -9999 -9999 -9999 -9999 -9999 -9999 -9999 -9999 -9999 -9999 -9999 -9999 -9999 -9999 -9999 -9999 -9999 -9999 -9999 -9999 -9999 -9999 -9999 -9999 -9999 -9999 -9999 -9999 -9999 -9999 -9999 -9999 -9999 -9999 -9999 -9999 -9999 -9999 -9999 1 2 3 4 5 6 7 8 9 11 12 13 14 16 17 17 17 17 16 16 16 17 18 19 19 19 19 18 16 15 13 13 13 14 15 16 16 17 17 17 17 18 22 26 29 31 34 36 38 40 44 45 43 41 40 40 41 44 47 50 52 53 54 54 54 54 53 52 51 51 52 54 56 58 61 63 65 66 68 69 69 68 66 63 59 55 50 46 43 41 40 39 40 40 41 42 43 44 45 47 48 51 53 54 56 58 60 61 62 63 63 64 64 64 64 63 63 62 62 62 62 62 62 62 63 63 64 64 64 64 64 64 64 64 64 63 62 61 60 59 58 57 57 57 57 58 58 58 59 59 59 59 59 58 58 59 59 59 59 59 60 60 60 59 58 57 57 57 57 58 60 61 63 65 66 66 67 67 66 66 65 64 63 63 63 63 63 64 64 64 64 64 64 63 63 63 63 63 63 63 63 64 64 64 64 63 63 63 63 63 63 63 63 63 62 62 62 62 63 63 63 64 64 63 63 63 63 62 62 62 61 60 60 59 59 58 58 58 58 59 59 59 58 58 57 57 56 55 55 55 55 55 55 55 54 54 53 53 52 52 52 51 51 50 49 48 47 -9999 -9999 -9999 -9999 -9999 -9999 -9999 -9999 -9999 -9999 -9999 -9999 -9999 -9999 -9999 -9999 -9999 -9999 -9999 -9999 -9999 -9999 -9999 -9999 -9999 -9999 -9999 -9999 -9999 -9999 -9999 -9999 -9999 -9999 -9999 -9999 -9999 -9999 -9999 -9999 -9999 -9999 -9999 -9999 -9999 -9999 -9999 -9999
-9999 -9999 -9999 -9999 -9999 -9999 -9999 -9999 -9999 -9999 -9999 -9999 -9999 -9999 -9999 -9999 -9999 -9999 -9999 -9999 -9999 -9999 -9999 -9999 -9999 -9999 -9999 -9999 -9999 -9999 -9999 -9999 -9999 -9999 -9999 -9999 -9999 -9999 -9999 -9999 -9999 -9999 -9999 -9999 -9999 -9999 -9999 -9999 -9999 -9999 -9999 -9999 -9999 -9999 -9999 -9999 -9999 -9999 -9999 -9999 -9999 -9999 -9999 -9999 -9999 -9999 -9999 -9999 -9999 -9999 -9999 -9999 -9999 -9999 -9999 -9999 -9999 -9999 -9999 -9999 -9999 -9999 -9999 -9999 -9999 -9999 -9999 -9999 -9999 -9999 -9999 -9999 -9999 -9999 -9999 -9999 -9999 -9999 -9999 -9999 -9999 -9999 -9999 -9999 -9999 -9999 -9999 -9999 -9999 -9999 -9999 -9999 -9999 -9999 -9999 -9999 -9999 -9999 -9999 -9999 -9999 -9999 -9999 -9999 -9999 -9999 -9999 -9999 -9999 -9999 -9999 -9999 -9999 -9999 -9999 -9999 -9999 -9999 -9999 -9999 -9999 -9999 -9999 -9999 -9999 -9999 -9999 -9999 -9999 -9999 -9999 -9999 -9999 -9999 -9999 -9999 -9999 -9999 -9999 -9999 -9999 -9999 -9999 -9999 -9999 -9999 -9999 -9999 -9999 -9999 -9999 -9999 -9999 -9999 -9999 -9999 -9999 -9999 1 2 3 4 5 6 7 8 10 10 12 13 15 16 17 18 17 17 16 16 16 17 18 19 19 19 19 17 16 15 14 13 13 14 15 15 16 16 16 16 17 19 22 25 27 30 33 36 38 41 44 44 42 40 39 39 40 42 45 47 49 50 52 52 52 52 51 50 50 50 51 53 56 59 62 65 67 69 70 72 72 71 69 66 61 55 50 45 42 40 39 38 39 41 43 44 45 46 48 49 50 53 54 56 57 58 59 61 62 62 63 63 63 63 63 63 62 62 62 62 62 62 62 62 62 63 63 64 64 64 64 64 64 64 64 63 63 62 61 60 59 58 57 56 56 56 56 56 57 57 57 58 58 58 57 57 57 57 58 58 59 59 59 58 58 57 57 57 57 58 60 62 63 65 66 66 66 66 66 65 65 64 63 63 63 63 63 63 63 63 63 63 63 63 62 62 62 62 62 63 63 63 64 64 64 63 63 63 63 63 63 63 62 62 62 62 62 62 62 62 62 62 62 63 63 63 62 62 62 61 61 60 59 59 58 58 58 58 58 59 59 59 59 58 58 57 56 56 55 55 55 55 55 55 54 54 53 53 52 52 52 51 51 50 50 49 48 -9999 -9999 -9999 -9999 -9999 -9999 -9999 -9999 -9999 -9999 -9999 -9999 -9999 -9999 -9999 -9999 -9999 -9999 -9999 -9999 -9999 -9999 -9999 -9999 -9999 -9999 -9999 -9999 -9999 -9999 -9999 -9999 -9999 -9999 -9999 -9999 -9999 -9999 -9999 -9999 -9999 -9999 -9999 -9999 -9999 -9999 -9999 -9999
-9999 -9999 -9999 -9999 -9999 -9999 -9999 -9999 -9999 -9999 -9999 -9999 -9999 -9999 -9999 -9999 -9999 -9999 -9999 -9999 -9999 -9999 -9999 -9999 -9999 -9999 -9999 -9999 -9999 -9999 -9999 -9999 -9999 -9999 -9999 -9999 -9999 -9999 -9999 -9999 -9999 -9999 -9999 -9999 -9999 -9999 -9999 -9999 -9999 -9999 -9999 -9999 -9999 -9999 -9999 -9999 -9999 -9999 -9999 -9999 -9999 -9999 -9999 -9999 -9999 -9999 -9999 -9999 -9999 -9999 -9999 -9999 -9999 -9999 -9999 -9999 -9999 -9999 -9999 -9999 -9999 -9999 -9999 -9999 -9999 -9999 -9999 -9999 -9999 -9999 -9999 -9999 -9999 -9999 -9999 -9999 -9999 -9999 -9999 -9999 -9999 -9999 -9999 -9999 -9999 -9999 -9999 -9999 -9999 -9999 -9999 -9999 -9999 -9999 -9999 -9999 -9999 -9999 -9999 -9999 -9999 -9999 -9999 -9999 -9999 -9999 -9999 -9999 -9999 -9999 -9999 -9999 -9999 -9999 -9999 -9999 -9999 -9999 -9999 -9999 -9999 -9999 -9999 -9999 -9999 -9999 -9999 -9999 -9999 -9999 -9999 -9999 -9999 -9999 -9999 -9999 -9999 -9999 -9999 -9999 -9999 -9999 -9999 -9999 -9999 -9999 -9999 -9999 -9999 -9999 -9999 -9999 -9999 -9999 -9999 -9999 -9999 -9999 0 1 2 3 4 5 7 9 10 11 11 13 14 16 17 18 18 17 17 16 16 17 18 18 19 19 18 17 16 15 14 13 13 13 14 14 14 14 15 16 17 18 21 23 26 29 32 35 38 42 44 44 42 40 39 38 39 40 42 44 46 48 49 49 49 48 47 47 47 48 50 53 56 60 63 67 69 71 73 74 74 73 71 67 62 55 49 44 41 39 38 38 40 42 44 45 47 49 50 51 52 54 56 56 57 59 60 60 61 62 62 63 63 63 63 62 62 62 62 62 62 62 62 62 62 63 63 64 64 64 64 64 64 64 64 64 63 63 62 61 59 58 57 56 55 55 54 54 54 55 55 56 56 56 56 56 56 56 56 57 58 59 59 58 57 57 57 56 57 59 60 62 64 65 66 65 65 65 65 65 64 63 63 62 62 62 62 63 63 63 63 63 63 62 62 62 62 62 62 62 63 63 63 64 64 63 63 63 63 63 63 63 62 62 63 63 63 63 63 62 62 62 62 62 62 62 62 61 61 61 60 60 59 58 58 58 58 58 58 58 59 59 59 59 58 57 57 56 56 55 55 55 55 55 54 53 53 53 52 52 52 51 51 51 50 49 48 -9999 -9999 -9999 -9999 -9999 -9999 -9999 -9999 -9999 -9999 -9999 -9999 -9999 -9999 -9999 -9999 -9999 -9999 -9999 -9999 -9999 -9999 -9999 -9999 -9999 -9999 -9999 -9999 -9999 -9999 -9999 -9999 -9999 -9999 -9999 -9999 -9999 -9999 -9999 -9999 -9999 -9999 -9999 -9999 -9999 -9999 -9999 -9999
-9999 -9999 -9999 -9999 -9999 -9999 -9999 -9999 -9999 -9999 -9999 -9999 -9999 -9999 -9999 -9999 -9999 -9999 -9999 -9999 -9999 -9999 -9999 -9999 -9999 -9999 -9999 -9999 -9999 -9999 -9999 -9999 -9999 -9999 -9999 -9999 -9999 -9999 -9999 -9999 -9999 -9999 -9999 -9999 -9999 -9999 -9999 -9999 -9999 -9999 -9999 -9999 -9999 -9999 -9999 -9999 -9999 -9999 -9999 -9999 -9999 -9999 -9999 -9999 -9999 -9999 -9999 -9999 -9999 -9999 -9999 -9999 -9999 -9999 -9999 -9999 -9999 -9999 -9999 -9999 -9999 -9999 -9999 -9999 -9999 -9999 -9999 -9999 -9999 -9999 -9999 -9999 -9999 -9999 -9999 -9999 -9999 -9999 -9999 -9999 -9999 -9999 -9999 -9999 -9999 -9999 -9999 -9999 -9999 -9999 -9999 -9999 -9999 -9999 -9999 -9999 -9999 -9999 -9999 -9999 -9999 -9999 -9999 -9999 -9999 -9999 -9999 -9999 -9999 -9999 -9999 -9999 -9999 -9999 -9999 -9999 -9999 -9999 -9999 -9999 -9999 -9999 -9999 -9999 -9999 -9999 -9999 -9999 -9999 -9999 -9999 -9999 -9999 -9999 -9999 -9999 -9999 -9999 -9999 -9999 -9999 -9999 -9999 -9999 -9999 -9999 -9999 -9999 -9999 -9999 -9999 -9999 -9999 -9999 -9999 -9999 -9999 -9999 0 0 1 2 3 5 7 9 10 11 11 12 13 14 16 17 18 17 17 16 16 16 17 18 18 18 17 17 16 15 14 13 13 13 14 14 14 14 15 15 17 18 20 22 25 28 31 34 38 42 44 44 42 40 39 38 38 38 40 42 43 45 46 47 46 45 44 43 44 46 48 53 57 61 65 68 71 73 75 75 74 73 71 68 62 54 48 43 40 38 37 38 40 43 45 47 49 51 52 54 55 56 57 58 59 59 60 60 61 61 62 62 63 63 62 62 62 62 61 61 61 61 61 62 62 63 63 64 64 64 64 64 64 64 64 64 63 63 62 61 60 59 57 56 55 54 53 52 52 52 53 54 54 55 55 55 55 55 55 56 57 58 58 58 57 57 56 56 57 59 61 62 64 65 65 65 65 65 64 64 63 63 62 62 62 61 62 62 62 63 63 63 62 62 61 61 61 61 62 62 63 63 63 64 64 64 63 63 63 63 63 62 63 63 64 65 65 65 64 64 63 62 62 62 62 62 61 61 61 60 60 59 59 58 58 58 58 58 58 58 59 59 59 58 58 57 57 56 56 55 55 55 55 55 54 53 53 52 52 52 52 51 51 51 50 49 49 -9999 -9999 -9999 -9999 -9999 -9999 -9999 -9999 -9999 -9999 -9999 -9999 -9999 -9999 -9999 -9999 -9999 -9999 -9999 -9999 -9999 -9999 -9999 -9999 -9999 -9999 -9999 -9999 -9999 -9999 -9999 -9999 -9999 -9999 -9999 -9999 -9999 -9999 -9999 -9999 -9999 -9999 -9999 -9999 -9999 -9999 -9999 -9999
-9999 -9999 -9999 -9999 -9999 -9999 -9999 -9999 -9999 -9999 -9999 -9999 -9999 -9999 -9999 -9999 -9999 -9999 -9999 -9999 -9999 -9999 -9999 -9999 -9999 -9999 -9999 -9999 -9999 -9999 -9999 -9999 -9999 -9999 -9999 -9999 -9999 -9999 -9999 -9999 -9999 -9999 -9999 -9999 -9999 -9999 -9999 -9999 -9999 -9999 -9999 -9999 -9999 -9999 -9999 -9999 -9999 -9999 -9999 -9999 -9999 -9999 -9999 -9999 -9999 -9999 -9999 -9999 -9999 -9999 -9999 -9999 -9999 -9999 -9999 -9999 -9999 -9999 -9999 -9999 -9999 -9999 -9999 -9999 -9999 -9999 -9999 -9999 -9999 -9999 -9999 -9999 -9999 -9999 -9999 -9999 -9999 -9999 -9999 -9999 -9999 -9999 -9999 -9999 -9999 -9999 -9999 -9999 -9999 -9999 -9999 -9999 -9999 -9999 -9999 -9999 -9999 -9999 -9999 -9999 -9999 -9999 -9999 -9999 -9999 -9999 -9999 -9999 -9999 -9999 -9999 -9999 -9999 -9999 -9999 -9999 -9999 -9999 -9999 -9999 -9999 -9999 -9999 -9999 -9999 -9999 -9999 -9999 -9999 -9999 -9999 -9999 -9999 -9999 -9999 -9999 -9999 -9999 -9999 -9999 -9999 -9999 -9999 -9999 -9999 -9999 -9999 -9999 -9999 -9999 -9999 -9999 -9999 -9999 -9999 -9999 -9999 -9999 0 0 0 1 3 6 8 9 11 11 12 11 12 12 14 15 17 17 17 16 15 16 16 17 17 17 17 16 16 15 14 14 14 14 14 14 14 14 15 16 17 18 19 21 24 27 31 34 38 42 44 44 42 40 39 38 37 37 38 39 41 42 44 44 43 42 40 40 41 43 47 52 57 62 66 70 73 75 75 75 74 73 71 67 60 53 47 42 39 38 37 37 40 42 44 47 50 53 55 56 57 59 59 60 60 61 61 61 61 61 62 62 62 62 62 62 62 61 61 61 61 61 61 61 62 62 63 64 64 64 64 64 64 64 64 64 63 63 63 62 60 59 57 55 54 53 52 52 52 52 52 52 53 53 54 54 54 54 55 56 57 58 58 58 57 56 56 56 57 59 61 63 64 64 65 64 64 64 64 63 63 62 62 61 61 61 61 62 62 62 62 62 62 61 61 60 60 61 61 62 62 63 63 64 64 64 64 63 63 63 63 63 63 65 67 68 68 67 66 65 64 63 63 62 62 61 61 61 60 60 60 59 59 58 58 58 57 57 58 58 58 58 58 58 58 57 57 56 56 55 55 55 55 54 54 53 52 52 52 52 52 51 51 51 50 50 49 -9999 -9999 -9999 -9999 -9999 -9999 -9999 -9999 -9999 -9999 -9999 -9999 -9999 -9999 -9999 -9999 -9999 -9999 -9999 -9999 -9999 -9999 -9999 -9999 -9999 -9999 -9999 -9999 -9999 -9999 -9999 -9999 -9999 -9999 -9999 -9999 -9999 -9999 -9999 -9999 -9999 -9999 -9999 -9999 -9999 -9999 -9999 -9999
-9999 -9999 -9999 -9999 -9999 -9999 -9999 -9999 -9999 -9999 -9999 -9999 -9999 -9999 -9999 -9999 -9999 -9999 -9999 -9999 -9999 -9999 -9999 -9999 -9999 -9999 -9999 -9999 -9999 -9999 -9999 -9999 -9999 -9999 -9999 -9999 -9999 -9999 -9999 -9999 -9999 -9999 -9999 -9999 -9999 -9999 -9999 -9999 -9999 -9999 -9999 -9999 -9999 -9999 -9999 -9999 -9999 -9999 -9999 -9999 -9999 -9999 -9999 -9999 -9999 -9999 -9999 -9999 -9999 -9999 -9999 -9999 -9999 -9999 -9999 -9999 -9999 -9999 -9999 -9999 -9999 -9999 -9999 -9999 -9999 -9999 -9999 -9999 -9999 -9999 -9999 -9999 -9999 -9999 -9999 -9999 -9999 -9999 -9999 -9999 -9999 -9999 -9999 -9999 -9999 -9999 -9999 -9999 -9999 -9999 -9999 -9999 -9999 -9999 -9999 -9999 -9999 -9999 -9999 -9999 -9999 -9999 -9999 -9999 -9999 -9999 -9999 -9999 -9999 -9999 -9999 -9999 -9999 -9999 -9999 -9999 -9999 -9999 -9999 -9999 -9999 -9999 -9999 -9999 -9999 -9999 -9999 -9999 -9999 -9999 -9999 -9999 -9999 -9999 -9999 -9999 -9999 -9999 -9999 -9999 -9999 -9999 -9999 -9999 -9999 -9999 -9999 -9999 -9999 -9999 -9999 -9999 -9999 -9999 -9999 -9999 -9999 -9999 0 0 0 1 3 6 8 9 11 12 12 12 12 12 12 13 15 16 16 16 15 15 16 16 16 16 16 15 15 15 14 14 14 14 14 14 14 14 15 16 17 18 20 21 24 27 31 35 38 42 44 44 43 41 40 38 37 36 37 38 39 40 42 42 41 39 37 37 38 41 45 51 57 63 67 71 74 75 75 75 74 73 70 65 58 51 45 40 38 36 36 36 39 41 44 47 51 55 58 59 60 61 62 62 62 62 61 61 61 61 62 62 62 62 62 62 62 61 61 61 61 61 61 61 62 62 63 63 64 64 64 64 64 64 64 63 63 63 63 62 61 59 57 55 54 53 52 52 52 52 52 52 52 53 53 54 54 54 55 56 56 57 57 57 57 56 56 56 57 60 62 63 63 63 64 63 63 63 63 63 62 62 61 61 61 61 61 61 62 62 62 62 62 61 61 60 60 60 61 62 62 63 64 64 64 64 64 64 64 63 63 63 64 67 69 70 70 70 69 67 66 65 63 62 61 61 61 61 60 60 59 59 59 58 58 58 57 57 57 57 58 58 58 58 57 57 57 56 55 55 54 54 54 54 54 53 52 52 52 52 52 51 51 51 50 50 49 -9999 -9999 -9999 -9999 -9999 -9999 -9999 -9999 -9999 -9999 -9999 -9999 -9999 -9999 -9999 -9999 -9999 -9999 -9999 -9999 -9999 -9999 -9999 -9999 -9999 -9999 -9999 -9999 -9999 -9999 -9999 -9999 -9999 -9999 -9999 -9999 -9999 -9999 -9999 -9999 -9999 -9999 -9999 -9999 -9999 -9999 -9999 -9999
-9999 -9999 -9999 -9999 -9999 -9999 -9999 -9999 -9999 -9999 -9999 -9999 -9999 -9999 -9999 -9999 -9999 -9999 -9999 -9999 -9999 -9999 -9999 -9999 -9999 -9999 -9999 -9999 -9999 -9999 -9999 -9999 -9999 -9999 -9999 -9999 -9999 -9999 -9999 -9999 -9999 -9999 -9999 -9999 -9999 -9999 -9999 -9999 -9999 -9999 -9999 -9999 -9999 -9999 -9999 -9999 -9999 -9999 -9999 -9999 -9999 -9999 -9999 -9999 -9999 -9999 -9999 -9999 -9999 -9999 -9999 -9999 -9999 -9999 -9999 -9999 -9999 -9999 -9999 -9999 -9999 -9999 -9999 -9999 -9999 -9999 -9999 -9999 -9999 -9999 -9999 -9999 -9999 -9999 -9999 -9999 -9999 -9999 -9999 -9999 -9999 -9999 -9999 -9999 -9999 -9999 -9999 -9999 -9999 -9999 -9999 -9999 -9999 -9999 -9999 -9999 -9999 -9999 -9999 -9999 -9999 -9999 -9999 -9999 -9999 -9999 -9999 -9999 -9999 -9999 -9999 -9999 -9999 -9999 -9999 -9999 -9999 -9999 -9999 -9999 -9999 -9999 -9999 -9999 -9999 -9999 -9999 -9999 -9999 -9999 -9999 -9999 -9999 -9999 -9999 -9999 -9999 -9999 -9999 -9999 -9999 -9999 -9999 -9999 -9999 -9999 -9999 -9999 -9999 -9999 -9999 -9999 -9999 -9999 -9999 -9999 -9999 -9999 0 0 0 1 3 6 8 9 11 12 13 13 14 14 14 13 12 14 15 15 15 15 15 16 16 15 14 14 14 14 14 14 14 14 14 14 14 14 15 16 17 19 20 22 25 29 33 36 40 43 44 44 43 42 41 39 37 35 35 36 37 39 40 40 39 37 35 34 35 38 43 49 56 62 67 71 74 75 75 75 74 72 69 63 56 48 42 38 36 35 34 35 37 40 43 47 52 56 60 62 63 63 63 63 63 62 61 61 61 62 62 62 62 62 62 62 61 61 61 61 61 61 61 61 61 62 62 63 64 64 64 64 64 64 63 63 63 63 62 62 61 59 57 56 54 53 52 52 52 52 52 52 52 53 53 53 53 54 55 56 56 57 57 57 56 56 55 56 57 60 61 62 62 62 62 62 62 62 62 62 61 61 61 60 60 60 61 61 61 61 61 61 61 61 60 60 60 60 61 62 62 63 63 64 65 65 65 65 65 64 64 65 66 69 71 73 73 73 72 71 69 67 65 64 62 61 61 61 60 60 59 59 58 58 58 58 57 57 57 57 57 57 57 57 57 56 56 55 55 54 54 54 54 54 53 53 52 52 52 52 52 51 51 51 50 50 50 49 -9999 -9999 -9999 -9999 -9999 -9999 -9999 -9999 -9999 -9999 -9999 -9999 -9999 -9999 -9999 -9999 -9999 -9999 -9999 -9999 -9999 -9999 -9999 -9999 -9999 -9999 -9999 -9999 -9999 -9999 -9999 -9999 -9999 -9999 -9999 -9999 -9999 -9999 -9999 -9999 -9999 -9999 -9999 -9999 -9999 -9999 -9999
-9999 -9999 -9999 -9999 -9999 -9999 -9999 -9999 -9999 -9999 -9999 -9999 -9999 -9999 -9999 -9999 -9999 -9999 -9999 -9999 -9999 -9999 -9999 -9999 -9999 -9999 -9999 -9999 -9999 -9999 -9999 -9999 -9999 -9999 -9999 -9999 -9999 -9999 -9999 -9999 -9999 -9999 -9999 -9999 -9999 -9999 -9999 -9999 -9999 -9999 -9999 -9999 -9999 -9999 -9999 -9999 -9999 -9999 -9999 -9999 -9999 -9999 -9999 -9999 -9999 -9999 -9999 -9999 -9999 -9999 -9999 -9999 -9999 -9999 -9999 -9999 -9999 -9999 -9999 -9999 -9999 -9999 -9999 -9999 -9999 -9999 -9999 -9999 -9999 -9999 -9999 -9999 -9999 -9999 -9999 -9999 -9999 -9999 -9999 -9999 -9999 -9999 -9999 -9999 -9999 -9999 -9999 -9999 -9999 -9999 -9999 -9999 -9999 -9999 -9999 -9999 -9999 -9999 -9999 -9999 -9999 -9999 -9999 -9999 -9999 -9999 -9999 -9999 -9999 -9999 -9999 -9999 -9999 -9999 -9999 -9999 -9999 -9999 -9999 -9999 -9999 -9999 -9999 -9999 -9999 -9999 -9999 -9999 -9999 -9999 -9999 -9999 -9999 -9999 -9999 -9999 -9999 -9999 -9999 -9999 -9999 -9999 -9999 -9999 -9999 -9999 -9999 -9999 -9999 -9999 -9999 -9999 -9999 -9999 -9999 -9999 -9999 -9999 0 0 0 1 3 6 7 9 10 12 13 14 15 15 16 14 12 12 14 15 15 15 14 14 14 14 13 13 13 13 13 13 13 13 13 14 14 15 16 17 18 20 21 23 27 31 35 39 42 44 45 45 44 43 42 39 37 35 34 35 36 37 38 38 37 36 34 32 33 35 40 47 53 60 66 70 73 74 75 74 73 70 66 60 52 43 36 33 33 33 33 34 36 38 41 46 51 57 60 63 64 64 64 63 63 62 61 61 61 62 62 62 62 62 62 61 61 61 61 60 60 60 60 61 61 61 62 63 63 64 64 64 64 63 63 63 63 62 62 62 61 59 58 56 54 53 52 52 52 52 52 52 52 52 53 53 53 54 54 55 56 57 57 56 56 55 55 55 57 59 61 61 62 62 61 61 61 61 61 61 61 60 60 60 60 60 60 61 61 61 61 61 60 60 60 60 60 60 61 62 62 63 64 65 66 66 67 67 67 67 68 69 70 73 75 77 78 78 77 75 73 71 68 66 64 63 62 61 60 60 59 58 58 58 58 57 57 57 57 57 57 57 56 56 56 55 55 55 54 54 54 54 54 54 53 53 52 52 52 52 52 51 51 51 51 50 50 50 -9999 -9999 -9999 -9999 -9999 -9999 -9999 -9999 -9999 -9999 -9999 -9999 -9999 -9999 -9999 -9999 -9999 -9999 -9999 -9999 -9999 -9999 -9999 -9999 -9999 -9999 -9999 -9999 -9999 -9999 -9999 -9999 -9999 -9999 -9999 -9999 -9999 -9999 -9999 -9999 -9999 -9999 -9999 -9999 -9999 -9999 -9999
-9999 -9999 -9999 -9999 -9999 -9999 -9999 -9999 -9999 -9999 -9999 -9999 -9999 -9999 -9999 -9999 -9999 -9999 -9999 -9999 -9999 -9999 -9999 -9999 -9999 -9999 -9999 -9999 -9999 -9999 -9999 -9999 -9999 -9999 -9999 -9999 -9999 -9999 -9999 -9999 -9999 -9999 -9999 -9999 -9999 -9999 -9999 -9999 -9999 -9999 -9999 -9999 -9999 -9999 -9999 -9999 -9999 -9999 -9999 -9999 -9999 -9999 -9999 -9999 -9999 -9999 -9999 -9999 -9999 -9999 -9999 -9999 -9999 -9999 -9999 -9999 -9999 -9999 -9999 -9999 -9999 -9999 -9999 -9999 -9999 -9999 -9999 -9999 -9999 -9999 -9999 -9999 -9999 -9999 -9999 -9999 -9999 -9999 -9999 -9999 -9999 -9999 -9999 -9999 -9999 -9999 -9999 -9999 -9999 -9999 -9999 -9999 -9999 -9999 -9999 -9999 -9999 -9999 -9999 -9999 -9999 -9999 -9999 -9999 -9999 -9999 -9999 -9999 -9999 -9999 -9999 -9999 -9999 -9999 -9999 -9999 -9999 -9999 -9999 -9999 -9999 -9999 -9999 -9999 -9999 -9999 -9999 -9999 -9999 -9999 -9999 -9999 -9999 -9999 -9999 -9999 -9999 -9999 -9999 -9999 -9999 -9999 -9999 -9999 -9999 -9999 -9999 -9999 -9999 -9999 -9999 -9999 -9999 -9999 -9999 -9999 -9999 -9999 0 0 0 1 3 5 7 9 10 12 13 14 15 16 16 15 13 12 12 14 14 14 13 13 13 12 12 12 12 12 13 13 13 13 14 14 16 17 18 18 19 21 23 25 29 33 37 41 44 46 46 46 45 44 42 39 35 31 30 31 33 35 36 37 36 33 30 29 31 33 38 43 50 57 63 67 70 72 72 72 70 67 63 56 46 34 25 27 31 31 31 32 34 36 40 45 50 56 61 63 64 64 64 63 62 62 61 61 61 61 62 62 61 61 61 61 60 60 60 60 60 60 60 60 60 61 61 62 63 63 64 64 63 63 63 63 62 62 61 61 61 60 58 57 55 54 52 52 52 52 52 52 52 52 52 52 52 53 54 55 56 56 56 56 55 55 55 55 57 58 60 60 61 61 61 60 60 60 60 60 60 60 60 60 60 60 60 60 60 60 60 60 60 60 60 60 60 60 61 62 62 63 64 66 67 68 69 70 71 71 72 73 75 78 81 83 84 85 84 82 79 75 72 69 67 65 63 62 61 60 59 58 57 57 57 57 57 57 57 56 56 56 56 55 55 55 54 54 54 54 54 54 54 53 53 52 52 52 52 52 52 51 51 51 51 51 51 50 -9999 -9999 -9999 -9999 -9999 -9999 -9999 -9999 -9999 -9999 -9999 -9999 -9999 -9999 -9999 -9999 -9999 -9999 -9999 -9999 -9999 -9999 -9999 -9999 -9999 -9999 -9999 -9999 -9999 -9999 -9999 -9999 -9999 -9999 -9999 -9999 -9999 -9999 -9999 -9999 -9999 -9999 -9999 -9999 -9999 -9999 -9999
-9999 -9999 -9999 -9999 -9999 -9999 -9999 -9999 -9999 -9999 -9999 -9999 -9999 -9999 -9999 -9999 -9999 -9999 -9999 -9999 -9999 -9999 -9999 -9999 -9999 -9999 -9999 -9999 -9999 -9999 -9999 -9999 -9999 -9999 -9999 -9999 -9999 -9999 -9999 -9999 -9999 -9999 -9999 -9999 -9999 -9999 -9999 -9999 -9999 -9999 -9999 -9999 -9999 -9999 -9999 -9999 -9999 -9999 -9999 -9999 -9999 -9999 -9999 -9999 -9999 -9999 -9999 -9999 -9999 -9999 -9999 -9999 -9999 -9999 -9999 -9999 -9999 -9999 -9999 -9999 -9999 -9999 -9999 -9999 -9999 -9999 -9999 -9999 -9999 -9999 -9999 -9999 -9999 -9999 -9999 -9999 -9999 -9999 -9999 -9999 -9999 -9999 -9999 -9999 -9999 -9999 -9999 -9999 -9999 -9999 -9999 -9999 -9999 -9999 -9999 -9999 -9999 -9999 -9999 -9999 -9999 -9999 -9999 -9999 -9999 -9999 -9999 -9999 -9999 -9999 -9999 -9999 -9999 -9999 -9999 -9999 -9999 -9999 -9999 -9999 -9999 -9999 -9999 -9999 -9999 -9999 -9999 -9999 -9999 -9999 -9999 -9999 -9999 -9999 -9999 -9999 -9999 -9999 -9999 -9999 -9999 -9999 -9999 -9999 -9999 -9999 -9999 -9999 -9999 -9999 -9999 -9999 -9999 -9999 -9999 -9999 -9999 -9999 0 0 0 1 3 5 7 9 11 12 13 14 16 16 17 16 15 14 12 13 13 13 12 12 12 12 12 13 13 13 14 15 15 14 15 17 19 20 20 20 21 23 25 27 31 36 40 43 46 47 47 47 46 45 42 38 32 24 24 25 30 33 35 35 34 30 24 25 28 30 34 40 46 52 58 63 66 68 69 68 66 63 59 51 38 24 24 28 30 30 31 31 33 35 39 44 50 55 60 63 64 64 64 63 62 62 61 61 61 61 61 61 61 60 60 60 60 60 59 59 59 59 59 59 60 60 60 61 62 63 63 63 63 63 63 62 62 61 61 61 60 60 59 58 56 55 53 52 52 52 52 52 52 52 52 52 52 52 53 54 55 56 56 55 55 54 54 55 56 58 59 59 60 60 60 60 59 60 60 60 60 59 59 59 59 59 59 59 59 60 60 60 60 59 59 60 60 60 61 62 62 63 65 67 69 71 72 74 75 76 77 79 81 84 88 90 92 93 91 89 85 81 77 74 70 67 65 63 62 61 59 58 57 57 57 57 57 57 56 56 56 56 55 55 54 54 54 54 54 54 54 54 53 53 53 52 52 52 52 52 52 51 51 51 51 51 51 51 -9999 -9999 -9999 -9999 -9999 -9999 -9999 -9999 -9999 -9999 -9999 -9999 -9999 -9999 -9999 -9999 -9999 -9999 -9999 -9999 -9999 -9999 -9999 -9999 -9999 -9999 -9999 -9999 -9999 -9999 -9999 -9999 -9999 -9999 -9999 -9999 -9999 -9999 -9999 -9999 -9999 -9999 -9999 -9999 -9999 -9999 -9999
-9999 -9999 -9999 -9999 -9999 -9999 -9999 -9999 -9999 -9999 -9999 -9999 -9999 -9999 -9999 -9999 -9999 -9999 -9999 -9999 -9999 -9999 -9999 -9999 -9999 -9999 -9999 -9999 -9999 -9999 -9999 -9999 -9999 -9999 -9999 -9999 -9999 -9999 -9999 -9999 -9999 -9999 -9999 -9999 -9999 -9999 -9999 -9999 -9999 -9999 -9999 -9999 -9999 -9999 -9999 -9999 -9999 -9999 -9999 -9999 -9999 -9999 -9999 -9999 -9999 -9999 -9999 -9999 -9999 -9999 -9999 -9999 -9999 -9999 -9999 -9999 -9999 -9999 -9999 -9999 -9999 -9999 -9999 -9999 -9999 -9999 -9999 -9999 -9999 -9999 -9999 -9999 -9999 -9999 -9999 -9999 -9999 -9999 -9999 -9999 -9999 -9999 -9999 -9999 -9999 -9999 -9999 -9999 -9999 -9999 -9999 -9999 -9999 -9999 -9999 -9999 -9999 -9999 -9999 -9999 -9999 -9999 -9999 -9999 -9999 -9999 -9999 -9999 -9999 -9999 -9999 -9999 -9999 -9999 -9999 -9999 -9999 -9999 -9999 -9999 -9999 -9999 -9999 -9999 -9999 -9999 -9999 -9999 -9999 -9999 -9999 -9999 -9999 -9999 -9999 -9999 -9999 -9999 -9999 -9999 -9999 -9999 -9999 -9999 -9999 -9999 -9999 -9999 -9999 -9999 -9999 -9999 -9999 -9999 -9999 -9999 -9999 -9999 0 0 0 1 3 5 7 9 11 12 14 15 16 17 17 17 17 16 15 14 13 12 13 14 14 14 14 14 15 15 16 17 17 17 18 20 22 23 23 23 24 25 27 29 33 38 42 46 48 48 48 47 46 45 42 38 30 23 23 23 25 30 32 33 33 29 23 23 23 25 29 34 41 47 52 57 61 63 63 63 61 58 53 44 32 23 25 29 30 30 30 31 33 36 40 44 50 55 59 63 64 64 63 63 62 62 61 61 61 61 61 60 60 60 59 59 59 59 59 58 58 59 59 59 59 59 60 61 62 62 63 63 63 63 62 62 61 61 61 60 60 60 59 58 57 56 54 52 52 52 52 51 52 52 52 51 51 52 53 54 54 55 55 55 54 54 54 55 56 57 58 59 59 59 59 59 59 59 59 60 59 59 59 59 59 59 59 59 59 59 59 59 59 59 59 60 60 61 61 62 63 65 67 70 72 74 76 78 80 81 83 86 89 92 95 98 100 101 99 96 92 88 83 78 74 70 67 65 64 63 61 59 58 57 57 57 57 57 56 56 56 55 55 55 54 54 54 53 53 53 53 53 53 53 52 52 52 51 51 51 51 51 51 51 51 52 52 51 -9999 -9999 -9999 -9999 -9999 -9999 -9999 -9999 -9999 -9999 -9999 -9999 -9999 -9999 -9999 -9999 -9999 -9999 -9999 -9999 -9999 -9999 -9999 -9999 -9999 -9999 -9999 -9999 -9999 -9999 -9999 -9999 -9999 -9999 -9999 -9999 -9999 -9999 -9999 -9999 -9999 -9999 -9999 -9999 -9999 -9999 -9999
-9999 -9999 -9999 -9999 -9999 -9999 -9999 -9999 -9999 -9999 -9999 -9999 -9999 -9999 -9999 -9999 -9999 -9999 -9999 -9999 -9999 -9999 -9999 -9999 -9999 -9999 -9999 -9999 -9999 -9999 -9999 -9999 -9999 -9999 -9999 -9999 -9999 -9999 -9999 -9999 -9999 -9999 -9999 -9999 -9999 -9999 -9999 -9999 -9999 -9999 -9999 -9999 -9999 -9999 -9999 -9999 -9999 -9999 -9999 -9999 -9999 -9999 -9999 -9999 -9999 -9999 -9999 -9999 -9999 -9999 -9999 -9999 -9999 -9999 -9999 -9999 -9999 -9999 -9999 -9999 -9999 -9999 -9999 -9999 -9999 -9999 -9999 -9999 -9999 -9999 -9999 -9999 -9999 -9999 -9999 -9999 -9999 -9999 -9999 -9999 -9999 -9999 -9999 -9999 -9999 -9999 -9999 -9999 -9999 -9999 -9999 -9999 -9999 -9999 -9999 -9999 -9999 -9999 -9999 -9999 -9999 -9999 -9999 -9999 -9999 -9999 -9999 -9999 -9999 -9999 -9999 -9999 -9999 -9999 -9999 -9999 -9999 -9999 -9999 -9999 -9999 -9999 -9999 -9999 -9999 -9999 -9999 -9999 -9999 -9999 -9999 -9999 -9999 -9999 -9999 -9999 -9999 -9999 -9999 -9999 -9999 -9999 -9999 -9999 -9999 -9999 -9999 -9999 -9999 -9999 -9999 -9999 -9999 -9999 -9999 -9999 -9999 -9999 0 0 0 1 3 5 7 9 11 13 14 15 17 17 18 18 18 18 18 17 16 16 17 17 17 17 16 16 17 17 18 19 19 20 22 23 24 25 25 25 26 27 29 31 35 40 44 47 49 49 48 48 47 45 42 38 31 23 23 23 24 28 30 31 32 31 27 23 23 -9999 24 26 34 40 46 50 53 56 57 57 56 53 45 35 24 24 28 31 31 30 31 32 34 37 41 46 51 55 59 62 63 63 63 62 62 61 61 61 61 61 60 60 60 59 59 59 59 59 58 58 58 58 58 59 59 59 60 61 61 62 62 62 62 62 62 61 61 60 60 60 60 59 59 58 58 56 55 53 52 52 51 51 51 51 51 51 51 51 52 53 54 54 54 54 54 54 54 55 56 57 58 58 59 59 59 59 59 59 59 59 59 59 58 58 59 59 58 58 58 59 59 59 59 59 59 60 60 61 61 62 64 67 70 73 75 78 81 83 86 88 91 94 97 101 104 107 109 109 107 104 99 94 88 83 78 74 71 69 67 65 63 61 60 59 58 57 57 56 56 55 55 55 55 54 54 54 53 53 53 53 53 53 53 53 52 52 51 51 51 51 51 51 51 51 51 51 52 51 -9999 -9999 -9999 -9999 -9999 -9999 -9999 -9999 -9999 -9999 -9999 -9999 -9999 -9999 -9999 -9999 -9999 -9999 -9999 -9999 -9999 -9999 -9999 -9999 -9999 -9999 -9999 -9999 -9999 -9999 -9999 -9999 -9999 -9999 -9999 -9999 -9999 -9999 -9999 -9999 -9999 -9999 -9999 -9999 -9999 -9999 -9999
-9999 -9999 -9999 -9999 -9999 -9999 -9999 -9999 -9999 -9999 -9999 -9999 -9999 -9999 -9999 -9999 -9999 -9999 -9999 -9999 -9999 -9999 -9999 -9999 -9999 -9999 -9999 -9999 -9999 -9999 -9999 -9999 -9999 -9999 -9999 -9999 -9999 -9999 -9999 -9999 -9999 -9999 -9999 -9999 -9999 -9999 -9999 -9999 -9999 -9999 -9999 -9999 -9999 -9999 -9999 -9999 -9999 -9999 -9999 -9999 -9999 -9999 -9999 -9999 -9999 -9999 -9999 -9999 -9999 -9999 -9999 -9999 -9999 -9999 -9999 -9999 -9999 -9999 -9999 -9999 -9999 -9999 -9999 -9999 -9999 -9999 -9999 -9999 -9999 -9999 -9999 -9999 -9999 -9999 -9999 -9999 -9999 -9999 -9999 -9999 -9999 -9999 -9999 -9999 -9999 -9999 -9999 -9999 -9999 -9999 -9999 -9999 -9999 -9999 -9999 -9999 -9999 -9999 -9999 -9999 -9999 -9999 -9999 -9999 -9999 -9999 -9999 -9999 -9999 -9999 -9999 -9999 -9999 -9999 -9999 -9999 -9999 -9999 -9999 -9999 -9999 -9999 -9999 -9999 -9999 -9999 -9999 -9999 -9999 -9999 -9999 -9999 -9999 -9999 -9999 -9999 -9999 -9999 -9999 -9999 -9999 -9999 -9999 -9999 -9999 -9999 -9999 -9999 -9999 -9999 -9999 -9999 -9999 -9999 -9999 -9999 -9999 -9999 0 0 0 1 3 5 7 9 11 13 14 15 17 18 18 18 19 19 19 20 20 20 20 20 20 19 19 19 19 20 20 20 21 22 23 24 25 26 27 27 27 28 30 33 37 41 45 48 49 49 49 48 47 44 41 38 33 27 23 23 23 26 28 30 31 32 29 23 23 -9999 -9999 23 26 32 37 42 46 48 50 50 49 46 37 24 23 24 30 32 32 31 32 34 36 40 44 48 52 56 59 62 62 62 62 61 61 61 61 61 61 60 60 60 59 58 58 58 58 58 58 58 58 58 58 59 59 59 60 61 61 62 62 62 62 62 61 60 60 60 60 60 60 59 59 58 58 57 55 53 52 52 51 51 51 51 51 51 51 51 52 52 53 53 54 53 53 53 54 55 56 57 57 58 58 58 58 58 58 58 58 59 58 58 58 58 58 58 58 58 58 58 58 59 59 59 59 60 61 61 62 64 66 69 72 76 80 84 87 90 93 96 99 102 105 109 112 115 116 116 114 110 105 99 93 87 82 78 75 72 69 67 65 63 62 60 59 58 57 56 56 55 55 55 54 54 54 53 53 53 53 53 53 53 53 52 52 52 51 51 51 51 51 51 51 51 51 51 51 51 -9999 -9999 -9999 -9999 -9999 -9999 -9999 -9999 -9999 -9999 -9999 -9999 -9999 -9999 -9999 -9999 -9999 -9999 -9999 -9999 -9999 -9999 -9999 -9999 -9999 -9999 -9999 -9999 -9999 -9999 -9999 -9999 -9999 -9999 -9999 -9999 -9999 -9999 -9999 -9999 -9999 -9999 -9999 -9999 -9999 -9999 -9999
-9999 -9999 -9999 -9999 -9999 -9999 -9999 -9999 -9999 -9999 -9999 -9999 -9999 -9999 -9999 -9999 -9999 -9999 -9999 -9999 -9999 -9999 -9999 -9999 -9999 -9999 -9999 -9999 -9999 -9999 -9999 -9999 -9999 -9999 -9999 -9999 -9999 -9999 -9999 -9999 -9999 -9999 -9999 -9999 -9999 -9999 -9999 -9999 -9999 -9999 -9999 -9999 -9999 -9999 -9999 -9999 -9999 -9999 -9999 -9999 -9999 -9999 -9999 -9999 -9999 -9999 -9999 -9999 -9999 -9999 -9999 -9999 -9999 -9999 -9999 -9999 -9999 -9999 -9999 -9999 -9999 -9999 -9999 -9999 -9999 -9999 -9999 -9999 -9999 -9999 -9999 -9999 -9999 -9999 -9999 -9999 -9999 -9999 -9999 -9999 -9999 -9999 -9999 -9999 -9999 -9999 -9999 -9999 -9999 -9999 -9999 -9999 -9999 -9999 -9999 -9999 -9999 -9999 -9999 -9999 -9999 -9999 -9999 -9999 -9999 -9999 -9999 -9999 -9999 -9999 -9999 -9999 -9999 -9999 -9999 -9999 -9999 -9999 -9999 -9999 -9999 -9999 -9999 -9999 -9999 -9999 -9999 -9999 -9999 -9999 -9999 -9999 -9999 -9999 -9999 -9999 -9999 -9999 -9999 -9999 -9999 -9999 -9999 -9999 -9999 -9999 -9999 -9999 -9999 -9999 -9999 -9999 -9999 -9999 -9999 -9999 -9999 -9999 0 0 0 1 3 5 7 9 11 13 14 15 17 17 18 19 19 19 20 21 22 22 22 22 22 22 22 22 23 22 22 22 23 24 25 26 27 28 28 28 29 29 31 34 38 42 45 48 49 49 49 48 46 44 41 37 32 27 23 23 23 24 27 28 30 32 31 27 23 23 -9999 -9999 -9999 24 27 34 39 42 43 44 44 41 32 23 23 24 30 32 32 33 35 37 40 43 47 51 55 58 60 61 62 61 61 60 60 60 60 60 60 60 60 59 59 58 57 58 58 58 58 58 58 58 58 59 59 60 60 61 61 62 62 62 61 61 60 60 60 59 60 60 59 59 58 58 57 57 55 53 52 51 51 51 51 51 50 50 51 51 52 52 52 53 53 53 53 53 54 54 55 56 57 57 58 58 58 58 58 58 58 58 58 57 57 58 58 58 58 57 57 58 58 58 58 59 60 60 61 62 64 65 68 71 75 80 85 89 94 98 101 104 107 110 113 116 119 122 123 122 119 115 109 104 97 92 87 83 79 75 72 69 67 65 64 62 61 60 59 58 57 56 55 55 54 54 54 53 53 53 53 53 53 53 53 53 52 52 51 51 51 51 51 51 51 51 51 51 50 50 -9999 -9999 -9999 -9999 -9999 -9999 -9999 -9999 -9999 -9999 -9999 -9999 -9999 -9999 -9999 -9999 -9999 -9999 -9999 -9999 -9999 -9999 -9999 -9999 -9999 -9999 -9999 -9999 -9999 -9999 -9999 -9999 -9999 -9999 -9999 -9999 -9999 -9999 -9999 -9999 -9999 -9999 -9999 -9999 -9999 -9999 -9999
-9999 -9999 -9999 -9999 -9999 -9999 -9999 -9999 -9999 -9999 -9999 -9999 -9999 -9999 -9999 -9999 -9999 -9999 -9999 -9999 -9999 -9999 -9999 -9999 -9999 -9999 -9999 -9999 -9999 -9999 -9999 -9999 -9999 -9999 -9999 -9999 -9999 -9999 -9999 -9999 -9999 -9999 -9999 -9999 -9999 -9999 -9999 -9999 -9999 -9999 -9999 -9999 -9999 -9999 -9999 -9999 -9999 -9999 -9999 -9999 -9999 -9999 -9999 -9999 -9999 -9999 -9999 -9999 -9999 -9999 -9999 -9999 -9999 -9999 -9999 -9999 -9999 -9999 -9999 -9999 -9999 -9999 -9999 -9999 -9999 -9999 -9999 -9999 -9999 -9999 -9999 -9999 -9999 -9999 -9999 -9999 -9999 -9999 -9999 -9999 -9999 -9999 -9999 -9999 -9999 -9999 -9999 -9999 -9999 -9999 -9999 -9999 -9999 -9999 -9999 -9999 -9999 -9999 -9999 -9999 -9999 -9999 -9999 -9999 -9999 -9999 -9999 -9999 -9999 -9999 -9999 -9999 -9999 -9999 -9999 -9999 -9999 -9999 -9999 -9999 -9999 -9999 -9999 -9999 -9999 -9999 -9999 -9999 -9999 -9999 -9999 -9999 -9999 -9999 -9999 -9999 -9999 -9999 -9999 -9999 -9999 -9999 -9999 -9999 -9999 -9999 -9999 -9999 -9999 -9999 -9999 -9999 -9999 -9999 -9999 -9999 -9999 -9999 0 0 0 1 4 6 7 9 11 12 14 15 16 17 18 18 19 19 20 20 21 22 23 23 24 25 25 25 26 26 25 25 25 26 27 28 29 30 30 30 30 30 32 34 38 42 45 48 48 48 48 46 44 42 39 35 29 23 23 23 23 23 26 28 29 32 33 31 27 23 23 -9999 -9999 -9999 23 26 32 36 38 39 39 36 29 23 23 24 29 32 33 35 37 40 44 47 50 53 56 58 60 60 61 60 60 60 60 60 60 60 60 60 60 59 58 57 57 57 57 57 57 57 58 58 58 59 59 60 60 61 61 61 61 61 61 61 60 60 59 59 59 59 59 59 58 58 57 56 55 53 52 51 51 50 50 50 50 50 50 51 51 52 52 52 52 52 52 53 53 54 55 55 56 57 57 58 58 58 57 57 57 57 57 57 57 57 58 58 57 57 57 57 57 58 58 59 60 61 62 64 66 68 71 75 80 85 90 95 101 106 109 112 115 117 120 123 126 128 128 127 123 119 113 108 102 96 91 87 83 79 75 72 70 68 66 65 64 63 62 61 59 58 57 56 55 55 54 54 54 54 54 54 54 54 53 53 53 53 52 52 51 51 51 51 50 50 50 50 50 49 -9999 -9999 -9999 -9999 -9999 -9999 -9999 -9999 -9999 -9999 -9999 -9999 -9999 -9999 -9999 -9999 -9999 -9999 -9999 -9999 -9999 -9999 -9999 -9999 -9999 -9999 -9999 -9999 -9999 -9999 -9999 -9999 -9999 -9999 -9999 -9999 -9999 -9999 -9999 -9999 -9999 -9999 -9999 -9999 -9999 -9999 -9999
-9999 -9999 -9999 -9999 -9999 -9999 -9999 -9999 -9999 -9999 -9999 -9999 -9999 -9999 -9999 -9999 -9999 -9999 -9999 -9999 -9999 -9999 -9999 -9999 -9999 -9999 -9999 -9999 -9999 -9999 -9999 -9999 -9999 -9999 -9999 -9999 -9999 -9999 -9999 -9999 -9999 -9999 -9999 -9999 -9999 -9999 -9999 -9999 -9999 -9999 -9999 -9999 -9999 -9999 -9999 -9999 -9999 -9999 -9999 -9999 -9999 -9999 -9999 -9999 -9999 -9999 -9999 -9999 -9999 -9999 -9999 -9999 -9999 -9999 -9999 -9999 -9999 -9999 -9999 -9999 -9999 -9999 -9999 -9999 -9999 -9999 -9999 -9999 -9999 -9999 -9999 -9999 -9999 -9999 -9999 -9999 -9999 -9999 -9999 -9999 -9999 -9999 -9999 -9999 -9999 -9999 -9999 -9999 -9999 -9999 -9999 -9999 -9999 -9999 -9999 -9999 -9999 -9999 -9999 -9999 -9999 -9999 -9999 -9999 -9999 -9999 -9999 -9999 -9999 -9999 -9999 -9999 -9999 -9999 -9999 -9999 -9999 -9999 -9999 -9999 -9999 -9999 -9999 -9999 -9999 -9999 -9999 -9999 -9999 -9999 -9999 -9999 -9999 -9999 -9999 -9999 -9999 -9999 -9999 -9999 -9999 -9999 -9999 -9999 -9999 -9999 -9999 -9999 -9999 -9999 -9999 -9999 -9999 -9999 -9999 -9999 -9999 -9999 0 0 0 1 3 5 7 9 10 12 13 15 16 17 18 18 19 19 19 20 21 22 23 24 25 27 28 29 29 29 29 29 29 29 30 31 32 32 32 31 31 31 33 35 38 41 45 47 48 47 46 45 42 38 33 29 24 23 23 -9999 -9999 23 24 26 29 31 33 33 31 26 23 23 -9999 -9999 -9999 -9999 26 31 34 35 35 31 24 23 23 24 27 30 33 36 39 42 47 49 51 55 57 59 59 60 60 60 59 59 59 59 60 60 60 60 60 59 58 58 57 57 57 57 57 57 58 58 58 59 60 60 60 61 61 61 61 60 60 60 60 59 59 59 59 59 59 58 58 57 57 56 54 53 51 51 51 50 50 50 50 50 50 51 51 51 51 52 52 52 52 52 53 54 54 55 56 56 57 57 57 57 57 57 57 57 57 57 57 57 57 57 57 57 57 57 57 58 59 60 61 62 64 66 69 71 75 80 85 91 96 102 108 113 117 120 122 124 127 130 131 133 133 131 127 123 118 113 107 101 96 92 89 84 80 77 74 72 70 68 66 65 64 63 62 60 59 58 57 56 56 56 56 55 55 55 54 55 55 54 54 54 53 53 52 51 51 51 50 50 50 50 49 49 -9999 -9999 -9999 -9999 -9999 -9999 -9999 -9999 -9999 -9999 -9999 -9999 -9999 -9999 -9999 -9999 -9999 -9999 -9999 -9999 -9999 -9999 -9999 -9999 -9999 -9999 -9999 -9999 -9999 -9999 -9999 -9999 -9999 -9999 -9999 -9999 -9999 -9999 -9999 -9999 -9999 -9999 -9999 -9999 -9999 -9999 -9999
-9999 -9999 -9999 -9999 -9999 -9999 -9999 -9999 -9999 -9999 -9999 -9999 -9999 -9999 -9999 -9999 -9999 -9999 -9999 -9999 -9999 -9999 -9999 -9999 -9999 -9999 -9999 -9999 -9999 -9999 -9999 -9999 -9999 -9999 -9999 -9999 -9999 -9999 -9999 -9999 -9999 -9999 -9999 -9999 -9999 -9999 -9999 -9999 -9999 -9999 -9999 -9999 -9999 -9999 -9999 -9999 -9999 -9999 -9999 -9999 -9999 -9999 -9999 -9999 -9999 -9999 -9999 -9999 -9999 -9999 -9999 -9999 -9999 -9999 -9999 -9999 -9999 -9999 -9999 -9999 -9999 -9999 -9999 -9999 -9999 -9999 -9999 -9999 -9999 -9999 -9999 -9999 -9999 -9999 -9999 -9999 -9999 -9999 -9999 -9999 -9999 -9999 -9999 -9999 -9999 -9999 -9999 -9999 -9999 -9999 -9999 -9999 -9999 -9999 -9999 -9999 -9999 -9999 -9999 -9999 -9999 -9999 -9999 -9999 -9999 -9999 -9999 -9999 -9999 -9999 -9999 -9999 -9999 -9999 -9999 -9999 -9999 -9999 -9999 -9999 -9999 -9999 -9999 -9999 -9999 -9999 -9999 -9999 -9999 -9999 -9999 -9999 -9999 -9999 -9999 -9999 -9999 -9999 -9999 -9999 -9999 -9999 -9999 -9999 -9999 -9999 -9999 -9999 -9999 -9999 -9999 -9999 -9999 -9999 -9999 -9999 -9999 -9999 0 0 1 2 3 5 7 8 10 11 13 14 16 17 18 18 19 19 19 20 21 22 24 26 27 29 31 33 34 34 34 34 34 34 34 35 35 35 34 33 33 33 34 36 38 42 45 47 47 46 45 42 38 31 24 24 23 23 -9999 -9999 -9999 -9999 23 24 26 29 32 34 33 28 23 23 -9999 -9999 -9999 -9999 -9999 25 30 32 31 27 23 23 23 23 23 25 31 36 39 43 47 49 52 55 57 58 59 59 59 59 59 59 59 59 60 60 60 60 60 59 59 58 57 57 56 56 57 57 57 58 58 59 60 60 60 60 60 60 60 60 60 60 60 59 59 59 59 59 58 58 58 57 56 55 54 53 52 51 51 50 50 49 49 50 50 51 51 51 51 51 51 52 52 52 53 54 54 55 55 56 57 57 57 57 57 57 56 56 56 56 56 57 57 57 57 57 57 57 57 58 60 61 63 64 67 69 72 75 80 85 91 97 103 108 114 119 123 126 129 131 133 135 136 137 136 134 131 128 123 118 113 107 102 98 94 90 85 82 79 76 74 72 70 68 67 65 64 63 61 60 58 57 57 58 57 57 57 56 56 56 56 56 56 55 55 54 52 52 51 51 50 50 49 49 49 49 -9999 -9999 -9999 -9999 -9999 -9999 -9999 -9999 -9999 -9999 -9999 -9999 -9999 -9999 -9999 -9999 -9999 -9999 -9999 -9999 -9999 -9999 -9999 -9999 -9999 -9999 -9999 -9999 -9999 -9999 -9999 -9999 -9999 -9999 -9999 -9999 -9999 -9999 -9999 -9999 -9999 -9999 -9999 -9999 -9999 -9999 -9999
-9999 -9999 -9999 -9999 -9999 -9999 -9999 -9999 -9999 -9999 -9999 -9999 -9999 -9999 -9999 -9999 -9999 -9999 -9999 -9999 -9999 -9999 -9999 -9999 -9999 -9999 -9999 -9999 -9999 -9999 -9999 -9999 -9999 -9999 -9999 -9999 -9999 -9999 -9999 -9999 -9999 -9999 -9999 -9999 -9999 -9999 -9999 -9999 -9999 -9999 -9999 -9999 -9999 -9999 -9999 -9999 -9999 -9999 -9999 -9999 -9999 -9999 -9999 -9999 -9999 -9999 -9999 -9999 -9999 -9999 -9999 -9999 -9999 -9999 -9999 -9999 -9999 -9999 -9999 -9999 -9999 -9999 -9999 -9999 -9999 -9999 -9999 -9999 -9999 -9999 -9999 -9999 -9999 -9999 -9999 -9999 -9999 -9999 -9999 -9999 -9999 -9999 -9999 -9999 -9999 -9999 -9999 -9999 -9999 -9999 -9999 -9999 -9999 -9999 -9999 -9999 -9999 -9999 -9999 -9999 -9999 -9999 -9999 -9999 -9999 -9999 -9999 -9999 -9999 -9999 -9999 -9999 -9999 -9999 -9999 -9999 -9999 -9999 -9999 -9999 -9999 -9999 -9999 -9999 -9999 -9999 -9999 -9999 -9999 -9999 -9999 -9999 -9999 -9999 -9999 -9999 -9999 -9999 -9999 -9999 -9999 -9999 -9999 -9999 -9999 -9999 -9999 -9999 -9999 -9999 -9999 -9999 -9999 -9999 -9999 -9999 -9999 -9999 0 0 1 2 4 5 6 8 9 10 12 14 16 17 18 19 19 19 20 20 21 23 25 27 30 32 34 37 39 39 39 39 38 38 38 39 39 38 36 35 35 34 35 37 39 43 46 47 47 45 43 39 31 24 23 23 23 -9999 -9999 -9999 -9999 -9999 23 23 23 25 28 30 29 27 25 24 23 -9999 -9999 -9999 -9999 -9999 25 28 27 23 23 23 23 23 23 23 26 35 40 43 47 49 51 54 56 58 58 59 59 59 59 59 59 59 60 60 60 60 60 60 59 58 58 57 56 55 56 56 57 57 58 59 60 60 60 60 60 59 59 59 59 60 60 59 59 59 58 58 58 58 57 57 56 55 54 53 52 51 51 50 49 49 49 49 49 50 50 50 51 51 51 52 52 52 53 54 54 55 55 56 56 56 56 56 56 56 56 56 56 56 56 56 57 57 57 57 57 57 58 59 61 63 65 67 70 73 76 80 85 91 97 103 109 114 119 125 129 132 135 137 138 139 140 140 139 138 135 132 129 125 120 114 109 104 100 95 91 87 84 81 79 76 74 72 70 69 67 65 64 62 60 59 58 59 59 60 59 59 58 58 59 59 58 57 56 54 53 52 51 50 50 49 49 49 49 48 -9999 -9999 -9999 -9999 -9999 -9999 -9999 -9999 -9999 -9999 -9999 -9999 -9999 -9999 -9999 -9999 -9999 -9999 -9999 -9999 -9999 -9999 -9999 -9999 -9999 -9999 -9999 -9999 -9999 -9999 -9999 -9999 -9999 -9999 -9999 -9999 -9999 -9999 -9999 -9999 -9999 -9999 -9999 -9999 -9999 -9999 -9999
