ncols         409
nrows         49
xllcorner     4217684.20407
yllcorner     1760944.37326
cellsize      25
NODATA_value  -9999
-9999 -9999 -9999 -9999 -9999 -9999 -9999 -9999 -9999 -9999 -9999 -9999 -9999 -9999 -9999 -9999 -9999 -9999 -9999 -9999 -9999 -9999 -9999 -9999 -9999 -9999 -9999 -9999 -9999 -9999 -9999 -9999 -9999 -9999 -9999 -9999 -9999 -9999 -9999 -9999 -9999 -9999 -9999 -9999 -9999 -9999 -9999 -9999 -9999 -9999 -9999 -9999 -9999 -9999 -9999 -9999 -9999 -9999 -9999 -9999 -9999 -9999 -9999 -9999 -9999 -9999 -9999 -9999 -9999 -9999 -9999 -9999 -9999 -9999 -9999 -9999 -9999 -9999 -9999 -9999 -9999 -9999 -9999 -9999 -9999 -9999 -9999 -9999 -9999 -9999 -9999 -9999 -9999 -9999 -9999 -9999 -9999 -9999 -9999 -9999 -9999 -9999 -9999 -9999 -9999 -9999 -9999 -9999 -9999 -9999 -9999 -9999 -9999 -9999 -9999 -9999 -9999 -9999 -9999 -9999 -9999 -9999 -9999 -9999 -9999 -9999 -9999 -9999 -9999 -9999 -9999 -9999 -9999 -9999 -9999 -9999 -9999 -9999 -9999 -9999 -9999 -9999 -9999 -9999 -9999 94 93 91 87 83 79 75 72 69 67 66 64 63 62 61 60 60 59 58 58 58 57 57 56 56 55 56 56 57 58 59 60 60 60 60 59 57 56 55 54 55 55 56 58 61 65 71 79 88 98 108 116 124 130 135 139 143 149 156 164 174 184 194 204 215 225 233 238 240 238 233 224 213 200 187 177 169 165 164 163 160 157 153 149 146 145 145 148 151 156 162 168 173 180 189 199 206 213 221 231 242 251 260 267 272 275 276 275 275 274 273 272 271 271 272 -9999 -9999 -9999 -9999 -9999 -9999 -9999 -9999 -9999 -9999 -9999 -9999 -9999 -9999 -9999 -9999 -9999 -9999 -9999 -9999 -9999 -9999 -9999 -9999 -9999 -9999 -9999 -9999 -9999 -9999 -9999 -9999 -9999 -9999 -9999 -9999 -9999 -9999 -9999 -9999 -9999 -9999 -9999 -9999 -9999 -9999 -9999 -9999 -9999 -9999 -9999 -9999 -9999 -9999 -9999 -9999 -9999 -9999 -9999 -9999 -9999 -9999 -9999 -9999 -9999 -9999 -9999 -9999 -9999 -9999 -9999 -9999 -9999 -9999 -9999 -9999 -9999 -9999 -9999 -9999 -9999 -9999 -9999 -9999 -9999 -9999 -9999 -9999 -9999 -9999 -9999 -9999 -9999 -9999 -9999 -9999 -9999 -9999 -9999 -9999 -9999 -9999 -9999 -9999 -9999 -9999 -9999 -9999 -9999 -9999 -9999 -9999 -9999 -9999 -9999 -9999 -9999 -9999 -9999 -9999 -9999 -9999 -9999 -9999 -9999 -9999 -9999 -9999 -9999 -9999 -9999 -9999 -9999 -9999 -9999 -9999 -9999 -9999 -9999 -9999 -9999 -9999 -9999 -9999 -9999 -9999 -9999 -9999 -9999
-9999 -9999 -9999 -9999 -9999 -9999 -9999 -9999 -9999 -9999 -9999 -9999 -9999 -9999 -9999 -9999 -9999 -9999 -9999 -9999 -9999 -9999 -9999 -9999 -9999 -9999 -9999 -9999 -9999 -9999 -9999 -9999 -9999 -9999 -9999 -9999 -9999 -9999 -9999 -9999 -9999 -9999 -9999 -9999 -9999 -9999 -9999 -9999 -9999 -9999 -9999 -9999 -9999 -9999 -9999 -9999 -9999 -9999 -9999 -9999 -9999 -9999 -9999 -9999 -9999 -9999 -9999 -9999 -9999 -9999 -9999 -9999 -9999 -9999 -9999 -9999 -9999 -9999 -9999 -9999 -9999 -9999 -9999 -9999 -9999 -9999 -9999 -9999 -9999 -9999 -9999 -9999 -9999 -9999 -9999 -9999 -9999 -9999 -9999 -9999 -9999 -9999 -9999 -9999 -9999 -9999 -9999 -9999 -9999 -9999 -9999 -9999 -9999 -9999 -9999 -9999 -9999 -9999 -9999 -9999 -9999 -9999 -9999 -9999 -9999 -9999 -9999 -9999 -9999 -9999 -9999 -9999 -9999 -9999 -9999 -9999 -9999 -9999 -9999 -9999 -9999 92 94 95 96 96 96 94 92 88 84 79 75 71 69 67 65 63 62 61 61 61 60 60 59 59 58 57 57 57 57 58 59 60 62 63 65 65 66 65 63 61 59 57 55 54 54 54 55 58 62 67 75 84 93 102 110 116 121 125 130 134 140 148 157 168 178 189 200 212 222 230 234 236 233 227 218 206 193 181 170 163 159 157 155 152 148 145 142 141 141 143 147 153 160 167 175 183 191 202 212 219 226 233 243 251 259 265 270 275 277 276 275 274 273 272 270 270 270 270 271 272 274 275 -9999 -9999 -9999 -9999 -9999 -9999 -9999 -9999 -9999 -9999 -9999 -9999 -9999 -9999 -9999 -9999 -9999 -9999 -9999 -9999 -9999 -9999 -9999 -9999 -9999 -9999 -9999 -9999 -9999 -9999 -9999 -9999 -9999 -9999 -9999 -9999 -9999 -9999 -9999 -9999 -9999 -9999 -9999 -9999 -9999 -9999 -9999 -9999 -9999 -9999 -9999 -9999 -9999 -9999 -9999 -9999 -9999 -9999 -9999 -9999 -9999 -9999 -9999 -9999 -9999 -9999 -9999 -9999 -9999 -9999 -9999 -9999 -9999 -9999 -9999 -9999 -9999 -9999 -9999 -9999 -9999 -9999 -9999 -9999 -9999 -9999 -9999 -9999 -9999 -9999 -9999 -9999 -9999 -9999 -9999 -9999 -9999 -9999 -9999 -9999 -9999 -9999 -9999 -9999 -9999 -9999 -9999 -9999 -9999 -9999 -9999 -9999 -9999 -9999 -9999 -9999 -9999 -9999 -9999 -9999 -9999 -9999 -9999 -9999 -9999 -9999 -9999 -9999 -9999 -9999 -9999 -9999 -9999 -9999 -9999 -9999 -9999 -9999 -9999 -9999 -9999 -9999 -9999 -9999 -9999
-9999 -9999 -9999 -9999 -9999 -9999 -9999 -9999 -9999 -9999 -9999 -9999 -9999 -9999 -9999 -9999 -9999 -9999 -9999 -9999 -9999 -9999 -9999 -9999 -9999 -9999 -9999 -9999 -9999 -9999 -9999 -9999 -9999 -9999 -9999 -9999 -9999 -9999 -9999 -9999 -9999 -9999 -9999 -9999 -9999 -9999 -9999 -9999 -9999 -9999 -9999 -9999 -9999 -9999 -9999 -9999 -9999 -9999 -9999 -9999 -9999 -9999 -9999 -9999 -9999 -9999 -9999 -9999 -9999 -9999 -9999 -9999 -9999 -9999 -9999 -9999 -9999 -9999 -9999 -9999 -9999 -9999 -9999 -9999 -9999 -9999 -9999 -9999 -9999 -9999 -9999 -9999 -9999 -9999 -9999 -9999 -9999 -9999 -9999 -9999 -9999 -9999 -9999 -9999 -9999 -9999 -9999 -9999 -9999 -9999 -9999 -9999 -9999 -9999 -9999 -9999 -9999 -9999 -9999 -9999 -9999 -9999 -9999 -9999 -9999 -9999 -9999 -9999 -9999 -9999 -9999 -9999 -9999 -9999 -9999 -9999 -9999 -9999 -9999 84 87 90 92 95 96 98 98 98 96 93 88 83 78 74 70 68 65 63 62 62 62 62 61 61 60 60 59 58 58 58 59 60 62 64 66 68 70 71 72 71 69 66 63 59 57 55 54 53 53 55 58 63 70 78 87 95 102 108 113 117 122 127 134 143 153 164 176 188 199 210 219 227 231 231 228 222 212 200 188 176 165 158 153 150 147 144 140 137 136 136 138 142 148 155 164 173 183 193 203 214 224 233 240 247 255 261 267 271 275 277 278 277 275 274 273 271 270 268 268 268 268 270 271 273 275 276 277 -9999 -9999 -9999 -9999 -9999 -9999 -9999 -9999 -9999 -9999 -9999 -9999 -9999 -9999 -9999 -9999 -9999 -9999 -9999 -9999 -9999 -9999 -9999 -9999 -9999 -9999 -9999 -9999 -9999 -9999 -9999 -9999 -9999 -9999 -9999 -9999 -9999 -9999 -9999 -9999 -9999 -9999 -9999 -9999 -9999 -9999 -9999 -9999 -9999 -9999 -9999 -9999 -9999 -9999 -9999 -9999 -9999 -9999 -9999 -9999 -9999 -9999 -9999 -9999 -9999 -9999 -9999 -9999 -9999 -9999 -9999 -9999 -9999 -9999 -9999 -9999 -9999 -9999 -9999 -9999 -9999 -9999 -9999 -9999 -9999 -9999 -9999 -9999 -9999 -9999 -9999 -9999 -9999 -9999 -9999 -9999 -9999 -9999 -9999 -9999 -9999 -9999 -9999 -9999 -9999 -9999 -9999 -9999 -9999 -9999 -9999 -9999 -9999 -9999 -9999 -9999 -9999 -9999 -9999 -9999 -9999 -9999 -9999 -9999 -9999 -9999 -9999 -9999 -9999 -9999 -9999 -9999 -9999 -9999 -9999 -9999 -9999 -9999 -9999 -9999 -9999 -9999
-9999 -9999 -9999 -9999 -9999 -9999 -9999 -9999 -9999 -9999 -9999 -9999 -9999 -9999 -9999 -9999 -9999 -9999 -9999 -9999 -9999 -9999 -9999 -9999 -9999 -9999 -9999 -9999 -9999 -9999 -9999 -9999 -9999 -9999 -9999 -9999 -9999 -9999 -9999 -9999 -9999 -9999 -9999 -9999 -9999 -9999 -9999 -9999 -9999 -9999 -9999 -9999 -9999 -9999 -9999 -9999 -9999 -9999 -9999 -9999 -9999 -9999 -9999 -9999 -9999 -9999 -9999 -9999 -9999 -9999 -9999 -9999 -9999 -9999 -9999 -9999 -9999 -9999 -9999 -9999 -9999 -9999 -9999 -9999 -9999 -9999 -9999 -9999 -9999 -9999 -9999 -9999 -9999 -9999 -9999 -9999 -9999 -9999 -9999 -9999 -9999 -9999 -9999 -9999 -9999 -9999 -9999 -9999 -9999 -9999 -9999 -9999 -9999 -9999 -9999 -9999 -9999 -9999 -9999 -9999 -9999 -9999 -9999 -9999 -9999 -9999 -9999 -9999 -9999 -9999 -9999 -9999 -9999 -9999 -9999 -9999 79 80 80 82 84 87 90 93 96 98 100 101 100 97 92 87 82 77 72 69 67 64 63 63 63 63 63 62 62 61 60 60 60 60 62 64 66 68 70 73 76 77 78 77 75 72 68 63 60 57 55 53 52 52 54 60 66 73 80 88 95 100 105 110 116 123 131 140 151 163 176 188 199 210 219 225 229 228 224 217 207 195 183 171 160 153 148 144 140 136 133 132 132 133 136 141 148 157 167 179 191 203 214 225 236 245 253 260 266 271 275 277 279 280 279 277 275 274 272 270 268 266 266 266 266 267 269 271 273 274 274 273 269 265 -9999 -9999 -9999 -9999 -9999 -9999 -9999 -9999 -9999 -9999 -9999 -9999 -9999 -9999 -9999 -9999 -9999 -9999 -9999 -9999 -9999 -9999 -9999 -9999 -9999 -9999 -9999 -9999 -9999 -9999 -9999 -9999 -9999 -9999 -9999 -9999 -9999 -9999 -9999 -9999 -9999 -9999 -9999 -9999 -9999 -9999 -9999 -9999 -9999 -9999 -9999 -9999 -9999 -9999 -9999 -9999 -9999 -9999 -9999 -9999 -9999 -9999 -9999 -9999 -9999 -9999 -9999 -9999 -9999 -9999 -9999 -9999 -9999 -9999 -9999 -9999 -9999 -9999 -9999 -9999 -9999 -9999 -9999 -9999 -9999 -9999 -9999 -9999 -9999 -9999 -9999 -9999 -9999 -9999 -9999 -9999 -9999 -9999 -9999 -9999 -9999 -9999 -9999 -9999 -9999 -9999 -9999 -9999 -9999 -9999 -9999 -9999 -9999 -9999 -9999 -9999 -9999 -9999 -9999 -9999 -9999 -9999 -9999 -9999 -9999 -9999 -9999 -9999 -9999 -9999 -9999 -9999 -9999 -9999 -9999 -9999 -9999 -9999 -9999
-9999 -9999 -9999 -9999 -9999 -9999 -9999 -9999 -9999 -9999 -9999 -9999 -9999 -9999 -9999 -9999 -9999 -9999 -9999 -9999 -9999 -9999 -9999 -9999 -9999 -9999 -9999 -9999 -9999 -9999 -9999 -9999 -9999 -9999 -9999 -9999 -9999 -9999 -9999 -9999 -9999 -9999 -9999 -9999 -9999 -9999 -9999 -9999 -9999 -9999 -9999 -9999 -9999 -9999 -9999 -9999 -9999 -9999 -9999 -9999 -9999 -9999 -9999 -9999 -9999 -9999 -9999 -9999 -9999 -9999 -9999 -9999 -9999 -9999 -9999 -9999 -9999 -9999 -9999 -9999 -9999 -9999 -9999 -9999 -9999 -9999 -9999 -9999 -9999 -9999 -9999 -9999 -9999 -9999 -9999 -9999 -9999 -9999 -9999 -9999 -9999 -9999 -9999 -9999 -9999 -9999 -9999 -9999 -9999 -9999 -9999 -9999 -9999 -9999 -9999 -9999 -9999 -9999 -9999 -9999 -9999 -9999 -9999 -9999 -9999 -9999 -9999 -9999 -9999 -9999 -9999 -9999 -9999 78 78 78 78 78 78 79 81 84 87 91 94 98 100 102 102 100 96 90 85 79 74 71 68 65 64 64 64 64 64 64 63 62 62 62 62 63 65 67 70 72 75 78 81 83 85 84 82 78 74 68 64 60 56 54 53 52 53 57 62 68 75 81 88 94 99 106 113 121 130 141 152 164 177 189 201 211 219 225 227 225 220 213 203 191 178 167 156 148 142 138 134 130 128 128 129 131 136 141 149 159 171 184 198 211 223 236 247 256 264 271 276 279 281 282 281 280 278 276 275 273 271 268 266 264 264 264 265 266 268 270 272 273 273 270 264 258 251 245 239 -9999 -9999 -9999 -9999 -9999 -9999 -9999 -9999 -9999 -9999 -9999 -9999 -9999 -9999 -9999 -9999 -9999 -9999 -9999 -9999 -9999 -9999 -9999 -9999 -9999 -9999 -9999 -9999 -9999 -9999 -9999 -9999 -9999 -9999 -9999 -9999 -9999 -9999 -9999 -9999 -9999 -9999 -9999 -9999 -9999 -9999 -9999 -9999 -9999 -9999 -9999 -9999 -9999 -9999 -9999 -9999 -9999 -9999 -9999 -9999 -9999 -9999 -9999 -9999 -9999 -9999 -9999 -9999 -9999 -9999 -9999 -9999 -9999 -9999 -9999 -9999 -9999 -9999 -9999 -9999 -9999 -9999 -9999 -9999 -9999 -9999 -9999 -9999 -9999 -9999 -9999 -9999 -9999 -9999 -9999 -9999 -9999 -9999 -9999 -9999 -9999 -9999 -9999 -9999 -9999 -9999 -9999 -9999 -9999 -9999 -9999 -9999 -9999 -9999 -9999 -9999 -9999 -9999 -9999 -9999 -9999 -9999 -9999 -9999 -9999 -9999 -9999 -9999 -9999 -9999 -9999 -9999 -9999 -9999 -9999 -9999
-9999 -9999 -9999 -9999 -9999 -9999 -9999 -9999 -9999 -9999 -9999 -9999 -9999 -9999 -9999 -9999 -9999 -9999 -9999 -9999 -9999 -9999 -9999 -9999 -9999 -9999 -9999 -9999 -9999 -9999 -9999 -9999 -9999 -9999 -9999 -9999 -9999 -9999 -9999 -9999 -9999 -9999 -9999 -9999 -9999 -9999 -9999 -9999 -9999 -9999 -9999 -9999 -9999 -9999 -9999 -9999 -9999 -9999 -9999 -9999 -9999 -9999 -9999 -9999 -9999 -9999 -9999 -9999 -9999 -9999 -9999 -9999 -9999 -9999 -9999 -9999 -9999 -9999 -9999 -9999 -9999 -9999 -9999 -9999 -9999 -9999 -9999 -9999 -9999 -9999 -9999 -9999 -9999 -9999 -9999 -9999 -9999 -9999 -9999 -9999 -9999 -9999 -9999 -9999 -9999 -9999 -9999 -9999 -9999 -9999 -9999 -9999 -9999 -9999 -9999 -9999 -9999 -9999 -9999 -9999 -9999 -9999 -9999 -9999 -9999 -9999 -9999 -9999 -9999 -9999 -9999 79 78 78 77 77 77 76 76 77 78 81 85 88 92 96 100 103 104 103 98 93 86 81 76 72 69 67 65 65 65 65 65 65 65 64 64 64 65 66 68 71 74 77 80 83 86 89 91 91 89 85 80 74 68 63 59 56 54 53 52 54 59 64 69 75 82 88 95 102 111 121 131 143 155 167 179 192 203 213 221 225 226 223 218 210 199 187 175 164 153 145 138 133 129 126 125 126 127 130 136 142 151 162 175 189 203 217 230 243 254 264 272 278 282 284 284 283 281 278 276 275 273 271 269 266 263 262 262 262 263 265 268 270 272 273 272 267 260 252 243 236 229 224 221 217 -9999 -9999 -9999 -9999 -9999 -9999 -9999 -9999 -9999 -9999 -9999 -9999 -9999 -9999 -9999 -9999 -9999 -9999 -9999 -9999 -9999 -9999 -9999 -9999 -9999 -9999 -9999 -9999 -9999 -9999 -9999 -9999 -9999 -9999 -9999 -9999 -9999 -9999 -9999 -9999 -9999 -9999 -9999 -9999 -9999 -9999 -9999 -9999 -9999 -9999 -9999 -9999 -9999 -9999 -9999 -9999 -9999 -9999 -9999 -9999 -9999 -9999 -9999 -9999 -9999 -9999 -9999 -9999 -9999 -9999 -9999 -9999 -9999 -9999 -9999 -9999 -9999 -9999 -9999 -9999 -9999 -9999 -9999 -9999 -9999 -9999 -9999 -9999 -9999 -9999 -9999 -9999 -9999 -9999 -9999 -9999 -9999 -9999 -9999 -9999 -9999 -9999 -9999 -9999 -9999 -9999 -9999 -9999 -9999 -9999 -9999 -9999 -9999 -9999 -9999 -9999 -9999 -9999 -9999 -9999 -9999 -9999 -9999 -9999 -9999 -9999 -9999 -9999 -9999 -9999 -9999 -9999 -9999
-9999 -9999 -9999 -9999 -9999 -9999 -9999 -9999 -9999 -9999 -9999 -9999 -9999 -9999 -9999 -9999 -9999 -9999 -9999 -9999 -9999 -9999 -9999 -9999 -9999 -9999 -9999 -9999 -9999 -9999 -9999 -9999 -9999 -9999 -9999 -9999 -9999 -9999 -9999 -9999 -9999 -9999 -9999 -9999 -9999 -9999 -9999 -9999 -9999 -9999 -9999 -9999 -9999 -9999 -9999 -9999 -9999 -9999 -9999 -9999 -9999 -9999 -9999 -9999 -9999 -9999 -9999 -9999 -9999 -9999 -9999 -9999 -9999 -9999 -9999 -9999 -9999 -9999 -9999 -9999 -9999 -9999 -9999 -9999 -9999 -9999 -9999 -9999 -9999 -9999 -9999 -9999 -9999 -9999 -9999 -9999 -9999 -9999 -9999 -9999 -9999 -9999 -9999 -9999 -9999 -9999 -9999 -9999 -9999 -9999 -9999 -9999 -9999 -9999 -9999 -9999 -9999 -9999 -9999 -9999 -9999 -9999 -9999 -9999 -9999 -9999 -9999 -9999 84 83 81 80 79 78 77 77 76 75 75 75 76 78 82 85 89 94 98 101 103 102 99 94 88 82 77 73 70 68 66 66 66 66 66 66 66 66 66 66 68 69 71 74 77 80 84 88 91 94 96 97 95 92 87 80 73 67 62 58 55 54 53 53 57 61 65 71 77 84 91 100 110 121 133 145 158 170 182 194 205 215 222 225 225 222 215 207 196 183 172 161 151 142 135 130 125 123 123 124 126 130 136 144 153 164 178 192 207 221 234 247 258 267 275 280 284 285 283 282 279 276 274 272 270 268 265 263 260 259 259 260 262 264 267 270 272 272 269 263 255 246 236 227 220 215 212 209 205 202 -9999 -9999 -9999 -9999 -9999 -9999 -9999 -9999 -9999 -9999 -9999 -9999 -9999 -9999 -9999 -9999 -9999 -9999 -9999 -9999 -9999 -9999 -9999 -9999 -9999 -9999 -9999 -9999 -9999 -9999 -9999 -9999 -9999 -9999 -9999 -9999 -9999 -9999 -9999 -9999 -9999 -9999 -9999 -9999 -9999 -9999 -9999 -9999 -9999 -9999 -9999 -9999 -9999 -9999 -9999 -9999 -9999 -9999 -9999 -9999 -9999 -9999 -9999 -9999 -9999 -9999 -9999 -9999 -9999 -9999 -9999 -9999 -9999 -9999 -9999 -9999 -9999 -9999 -9999 -9999 -9999 -9999 -9999 -9999 -9999 -9999 -9999 -9999 -9999 -9999 -9999 -9999 -9999 -9999 -9999 -9999 -9999 -9999 -9999 -9999 -9999 -9999 -9999 -9999 -9999 -9999 -9999 -9999 -9999 -9999 -9999 -9999 -9999 -9999 -9999 -9999 -9999 -9999 -9999 -9999 -9999 -9999 -9999 -9999 -9999 -9999 -9999 -9999 -9999 -9999 -9999
-9999 -9999 -9999 -9999 -9999 -9999 -9999 -9999 -9999 -9999 -9999 -9999 -9999 -9999 -9999 -9999 -9999 -9999 -9999 -9999 -9999 -9999 -9999 -9999 -9999 -9999 -9999 -9999 -9999 -9999 -9999 -9999 -9999 -9999 -9999 -9999 -9999 -9999 -9999 -9999 -9999 -9999 -9999 -9999 -9999 -9999 -9999 -9999 -9999 -9999 -9999 -9999 -9999 -9999 -9999 -9999 -9999 -9999 -9999 -9999 -9999 -9999 -9999 -9999 -9999 -9999 -9999 -9999 -9999 -9999 -9999 -9999 -9999 -9999 -9999 -9999 -9999 -9999 -9999 -9999 -9999 -9999 -9999 -9999 -9999 -9999 -9999 -9999 -9999 -9999 -9999 -9999 -9999 -9999 -9999 -9999 -9999 -9999 -9999 -9999 -9999 -9999 -9999 -9999 -9999 -9999 -9999 -9999 -9999 -9999 -9999 -9999 -9999 -9999 -9999 -9999 -9999 -9999 -9999 -9999 -9999 -9999 -9999 -9999 -9999 -9999 89 88 87 85 83 82 80 79 77 76 76 75 74 74 75 76 79 82 86 91 95 98 100 100 97 93 88 83 78 74 71 69 68 67 68 68 68 68 68 67 68 69 70 72 74 77 80 84 88 92 96 100 102 103 102 98 93 86 78 71 65 60 57 55 53 53 55 59 64 69 75 82 89 99 109 121 134 147 159 172 184 195 205 214 221 224 224 220 213 204 193 181 170 159 149 140 133 127 122 120 120 121 125 130 136 144 154 166 179 194 209 223 236 247 258 267 274 280 284 284 282 280 277 273 270 268 266 264 261 259 257 257 257 258 260 262 265 268 270 269 265 258 249 239 229 219 212 207 203 200 197 194 191 186 180 -9999 -9999 -9999 -9999 -9999 -9999 -9999 -9999 -9999 -9999 -9999 -9999 -9999 -9999 -9999 -9999 -9999 -9999 -9999 -9999 -9999 -9999 -9999 -9999 -9999 -9999 -9999 -9999 -9999 -9999 -9999 -9999 -9999 -9999 -9999 -9999 -9999 -9999 -9999 -9999 -9999 -9999 -9999 -9999 -9999 -9999 -9999 -9999 -9999 -9999 -9999 -9999 -9999 -9999 -9999 -9999 -9999 -9999 -9999 -9999 -9999 -9999 -9999 -9999 -9999 -9999 -9999 -9999 -9999 -9999 -9999 -9999 -9999 -9999 -9999 -9999 -9999 -9999 -9999 -9999 -9999 -9999 -9999 -9999 -9999 -9999 -9999 -9999 -9999 -9999 -9999 -9999 -9999 -9999 -9999 -9999 -9999 -9999 -9999 -9999 -9999 -9999 -9999 -9999 -9999 -9999 -9999 -9999 -9999 -9999 -9999 -9999 -9999 -9999 -9999 -9999 -9999 -9999 -9999 -9999 -9999 -9999 -9999 -9999 -9999 -9999 -9999 -9999
-9999 -9999 -9999 -9999 -9999 -9999 -9999 -9999 -9999 -9999 -9999 -9999 -9999 -9999 -9999 -9999 -9999 -9999 -9999 -9999 -9999 -9999 -9999 -9999 -9999 -9999 -9999 -9999 -9999 -9999 -9999 -9999 -9999 -9999 -9999 -9999 -9999 -9999 -9999 -9999 -9999 -9999 -9999 -9999 -9999 -9999 -9999 -9999 -9999 -9999 -9999 -9999 -9999 -9999 -9999 -9999 -9999 -9999 -9999 -9999 -9999 -9999 -9999 -9999 -9999 -9999 -9999 -9999 -9999 -9999 -9999 -9999 -9999 -9999 -9999 -9999 -9999 -9999 -9999 -9999 -9999 -9999 -9999 -9999 -9999 -9999 -9999 -9999 -9999 -9999 -9999 -9999 -9999 -9999 -9999 -9999 -9999 -9999 -9999 -9999 -9999 -9999 -9999 -9999 -9999 -9999 -9999 -9999 -9999 -9999 -9999 -9999 -9999 -9999 -9999 -9999 -9999 -9999 -9999 -9999 -9999 -9999 -9999 -9999 94 93 92 91 89 88 86 84 83 80 78 76 75 75 74 74 74 75 76 79 83 87 91 94 96 97 95 91 87 82 78 75 72 70 69 69 69 69 70 70 70 69 70 71 72 74 77 80 84 87 91 96 100 105 108 110 109 105 99 91 82 74 67 62 58 56 54 52 54 59 64 68 74 81 89 98 109 121 134 147 159 172 183 194 203 211 217 220 220 217 211 201 190 178 167 157 147 137 130 123 118 116 116 119 123 128 135 144 155 167 181 195 209 223 235 246 256 264 272 278 281 282 280 277 273 269 266 263 262 259 257 256 254 254 255 257 258 260 262 264 265 263 258 251 241 230 220 211 204 199 196 193 190 187 183 179 173 167 161 -9999 -9999 -9999 -9999 -9999 -9999 -9999 -9999 -9999 -9999 -9999 -9999 -9999 -9999 -9999 -9999 -9999 -9999 -9999 -9999 -9999 -9999 -9999 -9999 -9999 -9999 -9999 -9999 -9999 -9999 -9999 -9999 -9999 -9999 -9999 -9999 -9999 -9999 -9999 -9999 -9999 -9999 -9999 -9999 -9999 -9999 -9999 -9999 -9999 -9999 -9999 -9999 -9999 -9999 -9999 -9999 -9999 -9999 -9999 -9999 -9999 -9999 -9999 -9999 -9999 -9999 -9999 -9999 -9999 -9999 -9999 -9999 -9999 -9999 -9999 -9999 -9999 -9999 -9999 -9999 -9999 -9999 -9999 -9999 -9999 -9999 -9999 -9999 -9999 -9999 -9999 -9999 -9999 -9999 -9999 -9999 -9999 -9999 -9999 -9999 -9999 -9999 -9999 -9999 -9999 -9999 -9999 -9999 -9999 -9999 -9999 -9999 -9999 -9999 -9999 -9999 -9999 -9999 -9999 -9999 -9999 -9999 -9999 -9999 -9999 -9999
-9999 -9999 -9999 -9999 -9999 -9999 -9999 -9999 -9999 -9999 -9999 -9999 -9999 -9999 -9999 -9999 -9999 -9999 -9999 -9999 -9999 -9999 -9999 -9999 -9999 -9999 -9999 -9999 -9999 -9999 -9999 -9999 -9999 -9999 -9999 -9999 -9999 -9999 -9999 -9999 -9999 -9999 -9999 -9999 -9999 -9999 -9999 -9999 -9999 -9999 -9999 -9999 -9999 -9999 -9999 -9999 -9999 -9999 -9999 -9999 -9999 -9999 -9999 -9999 -9999 -9999 -9999 -9999 -9999 -9999 -9999 -9999 -9999 -9999 -9999 -9999 -9999 -9999 -9999 -9999 -9999 -9999 -9999 -9999 -9999 -9999 -9999 -9999 -9999 -9999 -9999 -9999 -9999 -9999 -9999 -9999 -9999 -9999 -9999 -9999 -9999 -9999 -9999 -9999 -9999 -9999 -9999 -9999 -9999 -9999 -9999 -9999 -9999 -9999 -9999 -9999 -9999 -9999 -9999 -9999 -9999 99 98 96 96 96 95 95 94 92 90 88 86 83 79 77 76 75 74 74 74 74 74 77 80 83 87 90 91 92 90 88 84 81 77 74 72 70 71 71 71 72 72 72 72 72 72 73 74 77 80 83 87 90 95 100 105 110 113 115 114 110 104 95 86 78 70 64 60 57 55 53 54 59 64 68 74 81 89 98 109 121 133 146 158 170 180 190 198 205 210 213 215 213 207 198 187 176 165 154 143 134 125 118 114 112 112 115 120 126 134 144 155 167 181 195 209 221 233 243 252 260 267 273 277 277 276 273 269 265 261 259 257 255 253 252 252 252 253 254 256 256 257 257 257 254 248 240 231 220 211 203 196 192 189 185 182 179 175 171 166 160 154 149 145 142 -9999 -9999 -9999 -9999 -9999 -9999 -9999 -9999 -9999 -9999 -9999 -9999 -9999 -9999 -9999 -9999 -9999 -9999 -9999 -9999 -9999 -9999 -9999 -9999 -9999 -9999 -9999 -9999 -9999 -9999 -9999 -9999 -9999 -9999 -9999 -9999 -9999 -9999 -9999 -9999 -9999 -9999 -9999 -9999 -9999 -9999 -9999 -9999 -9999 -9999 -9999 -9999 -9999 -9999 -9999 -9999 -9999 -9999 -9999 -9999 -9999 -9999 -9999 -9999 -9999 -9999 -9999 -9999 -9999 -9999 -9999 -9999 -9999 -9999 -9999 -9999 -9999 -9999 -9999 -9999 -9999 -9999 -9999 -9999 -9999 -9999 -9999 -9999 -9999 -9999 -9999 -9999 -9999 -9999 -9999 -9999 -9999 -9999 -9999 -9999 -9999 -9999 -9999 -9999 -9999 -9999 -9999 -9999 -9999 -9999 -9999 -9999 -9999 -9999 -9999 -9999 -9999 -9999 -9999 -9999 -9999 -9999 -9999
-9999 -9999 -9999 -9999 -9999 -9999 -9999 -9999 -9999 -9999 -9999 -9999 -9999 -9999 -9999 -9999 -9999 -9999 -9999 -9999 -9999 -9999 -9999 -9999 -9999 -9999 -9999 -9999 -9999 -9999 -9999 -9999 -9999 -9999 -9999 -9999 -9999 -9999 -9999 -9999 -9999 -9999 -9999 -9999 -9999 -9999 -9999 -9999 -9999 -9999 -9999 -9999 -9999 -9999 -9999 -9999 -9999 -9999 -9999 -9999 -9999 -9999 -9999 -9999 -9999 -9999 -9999 -9999 -9999 -9999 -9999 -9999 -9999 -9999 -9999 -9999 -9999 -9999 -9999 -9999 -9999 -9999 -9999 -9999 -9999 -9999 -9999 -9999 -9999 -9999 -9999 -9999 -9999 -9999 -9999 -9999 -9999 -9999 -9999 -9999 -9999 -9999 -9999 -9999 -9999 -9999 -9999 -9999 -9999 -9999 -9999 -9999 -9999 -9999 -9999 -9999 -9999 -9999 98 98 98 98 97 97 99 100 100 100 99 97 95 93 90 86 82 79 76 75 75 74 74 74 74 75 76 79 82 84 86 86 86 84 81 79 76 74 72 71 72 73 74 75 75 75 74 74 74 75 77 79 82 86 89 93 98 104 109 114 118 119 118 114 108 99 90 81 73 66 61 58 56 54 54 59 65 69 74 81 90 99 109 120 132 143 154 165 175 183 191 197 201 205 207 206 202 194 184 173 162 151 139 128 120 114 109 107 108 112 118 125 134 144 156 169 182 195 208 220 230 240 248 256 263 268 271 272 271 268 264 260 257 254 252 250 249 248 248 249 250 251 252 251 251 250 248 245 238 230 220 210 202 194 189 184 180 177 173 170 166 162 157 151 146 143 140 139 139 139 -9999 -9999 -9999 -9999 -9999 -9999 -9999 -9999 -9999 -9999 -9999 -9999 -9999 -9999 -9999 -9999 -9999 -9999 -9999 -9999 -9999 -9999 -9999 -9999 -9999 -9999 -9999 -9999 -9999 -9999 -9999 -9999 -9999 -9999 -9999 -9999 -9999 -9999 -9999 -9999 -9999 -9999 -9999 -9999 -9999 -9999 -9999 -9999 -9999 -9999 -9999 -9999 -9999 -9999 -9999 -9999 -9999 -9999 -9999 -9999 -9999 -9999 -9999 -9999 -9999 -9999 -9999 -9999 -9999 -9999 -9999 -9999 -9999 -9999 -9999 -9999 -9999 -9999 -9999 -9999 -9999 -9999 -9999 -9999 -9999 -9999 -9999 -9999 -9999 -9999 -9999 -9999 -9999 -9999 -9999 -9999 -9999 -9999 -9999 -9999 -9999 -9999 -9999 -9999 -9999 -9999 -9999 -9999 -9999 -9999 -9999 -9999 -9999 -9999 -9999 -9999 -9999 -9999 -9999 -9999 -9999
-9999 -9999 -9999 -9999 -9999 -9999 -9999 -9999 -9999 -9999 -9999 -9999 -9999 -9999 -9999 -9999 -9999 -9999 -9999 -9999 -9999 -9999 -9999 -9999 -9999 -9999 -9999 -9999 -9999 -9999 -9999 -9999 -9999 -9999 -9999 -9999 -9999 -9999 -9999 -9999 -9999 -9999 -9999 -9999 -9999 -9999 -9999 -9999 -9999 -9999 -9999 -9999 -9999 -9999 -9999 -9999 -9999 -9999 -9999 -9999 -9999 -9999 -9999 -9999 -9999 -9999 -9999 -9999 -9999 -9999 -9999 -9999 -9999 -9999 -9999 -9999 -9999 -9999 -9999 -9999 -9999 -9999 -9999 -9999 -9999 -9999 -9999 -9999 -9999 -9999 -9999 -9999 -9999 -9999 -9999 -9999 -9999 -9999 -9999 -9999 -9999 -9999 -9999 -9999 -9999 -9999 -9999 -9999 -9999 -9999 -9999 -9999 -9999 -9999 -9999 -9999 98 98 97 97 97 97 98 100 103 104 105 106 105 103 101 98 95 91 86 82 79 78 77 76 75 76 76 75 74 75 77 78 79 81 80 79 77 76 75 74 73 73 75 76 78 78 78 78 78 77 77 78 80 82 84 88 92 96 101 107 113 118 122 124 122 118 111 103 94 85 77 70 64 60 57 54 54 60 65 69 75 82 90 99 108 118 129 139 149 159 167 175 181 187 191 195 198 198 196 190 181 169 157 145 133 123 115 109 106 105 106 111 117 126 135 146 158 171 184 196 208 218 228 236 244 252 258 262 265 266 265 262 259 255 251 248 246 245 244 244 245 245 246 246 246 245 244 242 240 235 228 219 210 201 193 187 181 176 172 168 164 160 155 151 146 141 137 135 134 135 137 139 141 140 -9999 -9999 -9999 -9999 -9999 -9999 -9999 -9999 -9999 -9999 -9999 -9999 -9999 -9999 -9999 -9999 -9999 -9999 -9999 -9999 -9999 -9999 -9999 -9999 -9999 -9999 -9999 -9999 -9999 -9999 -9999 -9999 -9999 -9999 -9999 -9999 -9999 -9999 -9999 -9999 -9999 -9999 -9999 -9999 -9999 -9999 -9999 -9999 -9999 -9999 -9999 -9999 -9999 -9999 -9999 -9999 -9999 -9999 -9999 -9999 -9999 -9999 -9999 -9999 -9999 -9999 -9999 -9999 -9999 -9999 -9999 -9999 -9999 -9999 -9999 -9999 -9999 -9999 -9999 -9999 -9999 -9999 -9999 -9999 -9999 -9999 -9999 -9999 -9999 -9999 -9999 -9999 -9999 -9999 -9999 -9999 -9999 -9999 -9999 -9999 -9999 -9999 -9999 -9999 -9999 -9999 -9999 -9999 -9999 -9999 -9999 -9999 -9999 -9999 -9999 -9999 -9999 -9999 -9999
-9999 -9999 -9999 -9999 -9999 -9999 -9999 -9999 -9999 -9999 -9999 -9999 -9999 -9999 -9999 -9999 -9999 -9999 -9999 -9999 -9999 -9999 -9999 -9999 -9999 -9999 -9999 -9999 -9999 -9999 -9999 -9999 -9999 -9999 -9999 -9999 -9999 -9999 -9999 -9999 -9999 -9999 -9999 -9999 -9999 -9999 -9999 -9999 -9999 -9999 -9999 -9999 -9999 -9999 -9999 -9999 -9999 -9999 -9999 -9999 -9999 -9999 -9999 -9999 -9999 -9999 -9999 -9999 -9999 -9999 -9999 -9999 -9999 -9999 -9999 -9999 -9999 -9999 -9999 -9999 -9999 -9999 -9999 -9999 -9999 -9999 -9999 -9999 -9999 -9999 -9999 -9999 -9999 -9999 -9999 -9999 -9999 -9999 -9999 -9999 -9999 -9999 -9999 -9999 -9999 -9999 -9999 -9999 -9999 -9999 -9999 -9999 -9999 -9999 104 102 100 98 96 96 96 97 100 103 106 109 112 113 112 111 108 105 100 95 90 85 83 81 79 79 78 78 78 78 77 76 75 74 75 76 76 75 74 74 74 74 74 76 78 80 82 83 83 82 82 81 81 81 83 85 87 91 94 99 104 110 117 122 126 128 127 122 115 107 98 90 81 74 68 63 59 55 54 60 66 69 75 82 90 98 106 115 124 133 142 151 158 165 171 176 181 185 189 190 189 183 175 163 151 138 127 117 110 105 103 103 106 111 118 128 139 150 163 175 187 199 209 219 227 235 241 248 253 256 258 259 257 255 252 248 244 241 240 239 239 239 239 240 240 239 239 238 237 235 231 226 219 210 201 193 186 179 174 169 164 159 154 149 144 139 134 130 128 127 128 130 134 137 140 141 140 137 -9999 -9999 -9999 -9999 -9999 -9999 -9999 -9999 -9999 -9999 -9999 -9999 -9999 -9999 -9999 -9999 -9999 -9999 -9999 -9999 -9999 -9999 -9999 -9999 -9999 -9999 -9999 -9999 -9999 -9999 -9999 -9999 -9999 -9999 -9999 -9999 -9999 -9999 -9999 -9999 -9999 -9999 -9999 -9999 -9999 -9999 -9999 -9999 -9999 -9999 -9999 -9999 -9999 -9999 -9999 -9999 -9999 -9999 -9999 -9999 -9999 -9999 -9999 -9999 -9999 -9999 -9999 -9999 -9999 -9999 -9999 -9999 -9999 -9999 -9999 -9999 -9999 -9999 -9999 -9999 -9999 -9999 -9999 -9999 -9999 -9999 -9999 -9999 -9999 -9999 -9999 -9999 -9999 -9999 -9999 -9999 -9999 -9999 -9999 -9999 -9999 -9999 -9999 -9999 -9999 -9999 -9999 -9999 -9999 -9999 -9999 -9999 -9999 -9999 -9999 -9999 -9999
-9999 -9999 -9999 -9999 -9999 -9999 -9999 -9999 -9999 -9999 -9999 -9999 -9999 -9999 -9999 -9999 -9999 -9999 -9999 -9999 -9999 -9999 -9999 -9999 -9999 -9999 -9999 -9999 -9999 -9999 -9999 -9999 -9999 -9999 -9999 -9999 -9999 -9999 -9999 -9999 -9999 -9999 -9999 -9999 -9999 -9999 -9999 -9999 -9999 -9999 -9999 -9999 -9999 -9999 -9999 -9999 -9999 -9999 -9999 -9999 -9999 -9999 -9999 -9999 -9999 -9999 -9999 -9999 -9999 -9999 -9999 -9999 -9999 -9999 -9999 -9999 -9999 -9999 -9999 -9999 -9999 -9999 -9999 -9999 -9999 -9999 -9999 -9999 -9999 -9999 -9999 -9999 -9999 -9999 -9999 -9999 -9999 -9999 -9999 -9999 -9999 -9999 -9999 -9999 -9999 -9999 -9999 -9999 -9999 -9999 -9999 -9999 110 110 108 106 103 100 98 97 97 98 101 106 110 114 118 120 119 118 115 111 106 101 95 90 87 85 83 83 82 82 82 81 80 79 78 76 75 74 74 74 75 74 74 75 76 79 82 85 88 89 89 88 86 85 85 86 87 89 91 94 97 102 107 114 120 126 130 132 131 127 121 113 104 96 88 80 73 67 62 56 54 60 65 68 74 80 88 96 103 111 119 127 135 142 149 155 161 166 171 176 180 182 181 176 167 156 143 131 120 112 106 102 102 103 107 113 121 132 144 157 170 182 193 204 213 221 228 234 239 244 247 249 250 250 249 247 243 239 235 233 232 231 231 232 232 232 232 231 231 230 230 228 225 219 212 203 195 187 180 174 169 163 157 151 144 138 132 126 122 119 118 118 120 124 128 133 137 139 139 136 131 123 -9999 -9999 -9999 -9999 -9999 -9999 -9999 -9999 -9999 -9999 -9999 -9999 -9999 -9999 -9999 -9999 -9999 -9999 -9999 -9999 -9999 -9999 -9999 -9999 -9999 -9999 -9999 -9999 -9999 -9999 -9999 -9999 -9999 -9999 -9999 -9999 -9999 -9999 -9999 -9999 -9999 -9999 -9999 -9999 -9999 -9999 -9999 -9999 -9999 -9999 -9999 -9999 -9999 -9999 -9999 -9999 -9999 -9999 -9999 -9999 -9999 -9999 -9999 -9999 -9999 -9999 -9999 -9999 -9999 -9999 -9999 -9999 -9999 -9999 -9999 -9999 -9999 -9999 -9999 -9999 -9999 -9999 -9999 -9999 -9999 -9999 -9999 -9999 -9999 -9999 -9999 -9999 -9999 -9999 -9999 -9999 -9999 -9999 -9999 -9999 -9999 -9999 -9999 -9999 -9999 -9999 -9999 -9999 -9999 -9999 -9999 -9999 -9999 -9999 -9999
-9999 -9999 -9999 -9999 -9999 -9999 -9999 -9999 -9999 -9999 -9999 -9999 -9999 -9999 -9999 -9999 -9999 -9999 -9999 -9999 -9999 -9999 -9999 -9999 -9999 -9999 -9999 -9999 -9999 -9999 -9999 -9999 -9999 -9999 -9999 -9999 -9999 -9999 -9999 -9999 -9999 -9999 -9999 -9999 -9999 -9999 -9999 -9999 -9999 -9999 -9999 -9999 -9999 -9999 -9999 -9999 -9999 -9999 -9999 -9999 -9999 -9999 -9999 -9999 -9999 -9999 -9999 -9999 -9999 -9999 -9999 -9999 -9999 -9999 -9999 -9999 -9999 -9999 -9999 -9999 -9999 -9999 -9999 -9999 -9999 -9999 -9999 -9999 -9999 -9999 -9999 -9999 -9999 -9999 -9999 -9999 -9999 -9999 -9999 -9999 -9999 -9999 -9999 -9999 -9999 -9999 -9999 -9999 -9999 -9999 111 113 114 114 113 110 107 104 101 99 99 100 104 108 114 119 123 126 126 125 122 118 113 107 101 95 92 89 88 88 87 87 87 86 85 83 82 80 78 77 76 76 76 75 75 77 79 83 87 91 94 95 95 94 92 91 91 91 92 93 95 98 101 105 111 118 124 131 135 137 137 133 127 120 112 103 95 86 79 72 67 59 55 58 62 66 71 77 84 91 98 105 112 119 127 134 140 147 152 158 164 169 173 175 173 167 159 147 135 123 113 106 102 100 101 103 109 116 126 138 152 165 178 190 201 210 218 225 230 234 238 240 241 242 242 242 240 238 234 230 226 224 223 222 222 223 222 222 221 222 222 223 223 222 219 214 207 198 190 183 177 171 166 159 152 144 135 128 121 115 111 109 108 109 112 116 121 126 131 135 136 134 129 122 114 106 -9999 -9999 -9999 -9999 -9999 -9999 -9999 -9999 -9999 -9999 -9999 -9999 -9999 -9999 -9999 -9999 -9999 -9999 -9999 -9999 -9999 -9999 -9999 -9999 -9999 -9999 -9999 -9999 -9999 -9999 -9999 -9999 -9999 -9999 -9999 -9999 -9999 -9999 -9999 -9999 -9999 -9999 -9999 -9999 -9999 -9999 -9999 -9999 -9999 -9999 -9999 -9999 -9999 -9999 -9999 -9999 -9999 -9999 -9999 -9999 -9999 -9999 -9999 -9999 -9999 -9999 -9999 -9999 -9999 -9999 -9999 -9999 -9999 -9999 -9999 -9999 -9999 -9999 -9999 -9999 -9999 -9999 -9999 -9999 -9999 -9999 -9999 -9999 -9999 -9999 -9999 -9999 -9999 -9999 -9999 -9999 -9999 -9999 -9999 -9999 -9999 -9999 -9999 -9999 -9999 -9999 -9999 -9999 -9999 -9999 -9999 -9999 -9999
-9999 -9999 -9999 -9999 -9999 -9999 -9999 -9999 -9999 -9999 -9999 -9999 -9999 -9999 -9999 -9999 -9999 -9999 -9999 -9999 -9999 -9999 -9999 -9999 -9999 -9999 -9999 -9999 -9999 -9999 -9999 -9999 -9999 -9999 -9999 -9999 -9999 -9999 -9999 -9999 -9999 -9999 -9999 -9999 -9999 -9999 -9999 -9999 -9999 -9999 -9999 -9999 -9999 -9999 -9999 -9999 -9999 -9999 -9999 -9999 -9999 -9999 -9999 -9999 -9999 -9999 -9999 -9999 -9999 -9999 -9999 -9999 -9999 -9999 -9999 -9999 -9999 -9999 -9999 -9999 -9999 -9999 -9999 -9999 -9999 -9999 -9999 -9999 -9999 -9999 -9999 -9999 -9999 -9999 -9999 -9999 -9999 -9999 -9999 -9999 -9999 -9999 -9999 -9999 -9999 -9999 -9999 -9999 109 110 112 115 117 118 118 115 112 108 104 102 101 102 105 110 116 123 128 132 133 132 129 125 119 113 106 101 97 94 93 93 93 93 93 92 91 88 86 84 82 81 80 79 79 79 80 81 84 89 93 98 101 102 102 100 98 97 97 97 98 99 100 102 105 109 115 122 129 135 140 143 143 140 135 128 120 112 103 95 86 78 72 65 57 54 60 64 67 72 78 85 92 98 104 111 119 126 133 139 145 151 157 162 166 167 165 159 150 138 126 116 107 101 97 97 100 104 111 121 132 145 159 174 187 198 208 217 224 229 233 235 236 236 236 234 233 233 231 229 225 220 216 214 213 213 213 212 212 211 211 212 213 215 216 216 213 208 201 194 187 180 175 170 164 157 149 139 129 120 112 106 102 100 100 101 103 107 112 118 123 127 129 129 125 119 111 104 97 91 -9999 -9999 -9999 -9999 -9999 -9999 -9999 -9999 -9999 -9999 -9999 -9999 -9999 -9999 -9999 -9999 -9999 -9999 -9999 -9999 -9999 -9999 -9999 -9999 -9999 -9999 -9999 -9999 -9999 -9999 -9999 -9999 -9999 -9999 -9999 -9999 -9999 -9999 -9999 -9999 -9999 -9999 -9999 -9999 -9999 -9999 -9999 -9999 -9999 -9999 -9999 -9999 -9999 -9999 -9999 -9999 -9999 -9999 -9999 -9999 -9999 -9999 -9999 -9999 -9999 -9999 -9999 -9999 -9999 -9999 -9999 -9999 -9999 -9999 -9999 -9999 -9999 -9999 -9999 -9999 -9999 -9999 -9999 -9999 -9999 -9999 -9999 -9999 -9999 -9999 -9999 -9999 -9999 -9999 -9999 -9999 -9999 -9999 -9999 -9999 -9999 -9999 -9999 -9999 -9999 -9999 -9999 -9999 -9999 -9999 -9999
-9999 -9999 -9999 -9999 -9999 -9999 -9999 -9999 -9999 -9999 -9999 -9999 -9999 -9999 -9999 -9999 -9999 -9999 -9999 -9999 -9999 -9999 -9999 -9999 -9999 -9999 -9999 -9999 -9999 -9999 -9999 -9999 -9999 -9999 -9999 -9999 -9999 -9999 -9999 -9999 -9999 -9999 -9999 -9999 -9999 -9999 -9999 -9999 -9999 -9999 -9999 -9999 -9999 -9999 -9999 -9999 -9999 -9999 -9999 -9999 -9999 -9999 -9999 -9999 -9999 -9999 -9999 -9999 -9999 -9999 -9999 -9999 -9999 -9999 -9999 -9999 -9999 -9999 -9999 -9999 -9999 -9999 -9999 -9999 -9999 -9999 -9999 -9999 -9999 -9999 -9999 -9999 -9999 -9999 -9999 -9999 -9999 -9999 -9999 -9999 -9999 -9999 -9999 -9999 -9999 -9999 -9999 110 110 111 114 117 120 122 122 120 117 112 108 105 103 104 107 112 119 126 132 136 138 138 135 131 125 119 112 106 102 100 98 98 99 99 99 98 96 94 92 90 88 86 86 85 85 85 86 88 92 96 101 106 109 110 109 107 105 104 103 104 104 105 106 107 110 114 119 126 134 140 146 149 149 147 143 137 130 121 112 103 94 85 78 69 59 53 56 60 63 66 72 77 83 90 96 103 111 118 125 131 138 145 151 157 160 160 158 151 141 130 118 108 100 95 94 95 99 106 115 126 138 153 167 181 195 206 216 223 229 233 235 235 235 232 230 227 225 224 222 219 215 211 207 205 203 202 202 201 200 200 201 202 204 207 209 209 207 202 195 189 183 178 174 169 164 157 147 136 125 115 107 101 96 94 93 93 95 98 102 108 114 119 122 122 120 114 108 101 95 89 84 80 -9999 -9999 -9999 -9999 -9999 -9999 -9999 -9999 -9999 -9999 -9999 -9999 -9999 -9999 -9999 -9999 -9999 -9999 -9999 -9999 -9999 -9999 -9999 -9999 -9999 -9999 -9999 -9999 -9999 -9999 -9999 -9999 -9999 -9999 -9999 -9999 -9999 -9999 -9999 -9999 -9999 -9999 -9999 -9999 -9999 -9999 -9999 -9999 -9999 -9999 -9999 -9999 -9999 -9999 -9999 -9999 -9999 -9999 -9999 -9999 -9999 -9999 -9999 -9999 -9999 -9999 -9999 -9999 -9999 -9999 -9999 -9999 -9999 -9999 -9999 -9999 -9999 -9999 -9999 -9999 -9999 -9999 -9999 -9999 -9999 -9999 -9999 -9999 -9999 -9999 -9999 -9999 -9999 -9999 -9999 -9999 -9999 -9999 -9999 -9999 -9999 -9999 -9999 -9999 -9999 -9999 -9999 -9999 -9999
-9999 -9999 -9999 -9999 -9999 -9999 -9999 -9999 -9999 -9999 -9999 -9999 -9999 -9999 -9999 -9999 -9999 -9999 -9999 -9999 -9999 -9999 -9999 -9999 -9999 -9999 -9999 -9999 -9999 -9999 -9999 -9999 -9999 -9999 -9999 -9999 -9999 -9999 -9999 -9999 -9999 -9999 -9999 -9999 -9999 -9999 -9999 -9999 -9999 -9999 -9999 -9999 -9999 -9999 -9999 -9999 -9999 -9999 -9999 -9999 -9999 -9999 -9999 -9999 -9999 -9999 -9999 -9999 -9999 -9999 -9999 -9999 -9999 -9999 -9999 -9999 -9999 -9999 -9999 -9999 -9999 -9999 -9999 -9999 -9999 -9999 -9999 -9999 -9999 -9999 -9999 -9999 -9999 -9999 -9999 -9999 -9999 -9999 -9999 -9999 -9999 -9999 -9999 -9999 -9999 112 111 111 111 113 115 119 122 125 126 125 122 117 112 108 106 106 109 114 120 127 135 140 143 143 140 136 130 124 118 112 108 105 103 103 104 104 104 103 102 100 98 96 94 93 93 92 92 93 94 96 100 104 109 114 117 117 116 114 111 110 109 109 110 110 111 113 115 119 124 131 139 146 151 155 156 155 151 145 138 130 121 112 102 93 83 74 62 53 53 56 58 61 65 69 75 80 87 94 102 110 118 126 133 140 147 152 155 155 151 143 133 121 110 101 94 91 91 94 99 107 118 130 144 159 174 188 201 213 222 229 233 236 237 236 233 228 224 220 217 215 213 210 206 202 198 195 193 191 190 189 189 189 190 192 195 198 200 200 198 193 188 182 178 175 172 169 164 156 146 135 123 113 104 98 93 90 88 87 88 90 93 99 105 111 115 116 114 109 103 97 91 86 82 78 75 73 -9999 -9999 -9999 -9999 -9999 -9999 -9999 -9999 -9999 -9999 -9999 -9999 -9999 -9999 -9999 -9999 -9999 -9999 -9999 -9999 -9999 -9999 -9999 -9999 -9999 -9999 -9999 -9999 -9999 -9999 -9999 -9999 -9999 -9999 -9999 -9999 -9999 -9999 -9999 -9999 -9999 -9999 -9999 -9999 -9999 -9999 -9999 -9999 -9999 -9999 -9999 -9999 -9999 -9999 -9999 -9999 -9999 -9999 -9999 -9999 -9999 -9999 -9999 -9999 -9999 -9999 -9999 -9999 -9999 -9999 -9999 -9999 -9999 -9999 -9999 -9999 -9999 -9999 -9999 -9999 -9999 -9999 -9999 -9999 -9999 -9999 -9999 -9999 -9999 -9999 -9999 -9999 -9999 -9999 -9999 -9999 -9999 -9999 -9999 -9999 -9999 -9999 -9999 -9999 -9999 -9999 -9999
-9999 -9999 -9999 -9999 -9999 -9999 -9999 -9999 -9999 -9999 -9999 -9999 -9999 -9999 -9999 -9999 -9999 -9999 -9999 -9999 -9999 -9999 -9999 -9999 -9999 -9999 -9999 -9999 -9999 -9999 -9999 -9999 -9999 -9999 -9999 -9999 -9999 -9999 -9999 -9999 -9999 -9999 -9999 -9999 -9999 -9999 -9999 -9999 -9999 -9999 -9999 -9999 -9999 -9999 -9999 -9999 -9999 -9999 -9999 -9999 -9999 -9999 -9999 -9999 -9999 -9999 -9999 -9999 -9999 -9999 -9999 -9999 -9999 -9999 -9999 -9999 -9999 -9999 -9999 -9999 -9999 -9999 -9999 -9999 -9999 -9999 -9999 -9999 -9999 -9999 -9999 -9999 -9999 -9999 -9999 -9999 -9999 -9999 -9999 -9999 -9999 -9999 -9999 116 114 113 113 113 113 114 117 120 124 127 129 129 127 122 117 112 109 108 110 114 121 129 137 143 146 147 144 140 135 130 123 117 113 110 109 109 109 109 109 108 107 106 104 102 101 101 101 101 101 102 103 105 108 113 118 122 124 124 123 120 117 115 114 114 115 116 117 118 120 124 129 136 143 151 157 161 162 162 158 153 146 138 129 120 110 100 89 78 67 58 53 52 54 56 59 63 67 73 79 86 95 103 112 121 129 137 144 149 152 151 146 138 127 115 104 95 90 88 89 93 99 109 121 135 150 165 180 194 207 218 227 233 237 238 238 235 230 224 218 213 209 206 203 200 197 192 188 184 181 180 179 178 177 177 179 181 184 187 189 189 186 183 178 174 171 170 168 167 163 156 146 134 123 113 104 98 93 89 86 83 82 83 87 91 97 103 108 110 108 103 97 92 87 82 78 75 72 71 69 69 -9999 -9999 -9999 -9999 -9999 -9999 -9999 -9999 -9999 -9999 -9999 -9999 -9999 -9999 -9999 -9999 -9999 -9999 -9999 -9999 -9999 -9999 -9999 -9999 -9999 -9999 -9999 -9999 -9999 -9999 -9999 -9999 -9999 -9999 -9999 -9999 -9999 -9999 -9999 -9999 -9999 -9999 -9999 -9999 -9999 -9999 -9999 -9999 -9999 -9999 -9999 -9999 -9999 -9999 -9999 -9999 -9999 -9999 -9999 -9999 -9999 -9999 -9999 -9999 -9999 -9999 -9999 -9999 -9999 -9999 -9999 -9999 -9999 -9999 -9999 -9999 -9999 -9999 -9999 -9999 -9999 -9999 -9999 -9999 -9999 -9999 -9999 -9999 -9999 -9999 -9999 -9999 -9999 -9999 -9999 -9999 -9999 -9999 -9999 -9999 -9999 -9999 -9999 -9999 -9999
-9999 -9999 -9999 -9999 -9999 -9999 -9999 -9999 -9999 -9999 -9999 -9999 -9999 -9999 -9999 -9999 -9999 -9999 -9999 -9999 -9999 -9999 -9999 -9999 -9999 -9999 -9999 -9999 -9999 -9999 -9999 -9999 -9999 -9999 -9999 -9999 -9999 -9999 -9999 -9999 -9999 -9999 -9999 -9999 -9999 -9999 -9999 -9999 -9999 -9999 -9999 -9999 -9999 -9999 -9999 -9999 -9999 -9999 -9999 -9999 -9999 -9999 -9999 -9999 -9999 -9999 -9999 -9999 -9999 -9999 -9999 -9999 -9999 -9999 -9999 -9999 -9999 -9999 -9999 -9999 -9999 -9999 -9999 -9999 -9999 -9999 -9999 -9999 -9999 -9999 -9999 -9999 -9999 -9999 -9999 -9999 -9999 -9999 -9999 -9999 -9999 -9999 117 116 115 115 115 115 116 117 119 122 126 129 132 132 130 127 121 116 112 110 111 115 122 129 138 144 149 150 148 145 140 135 129 124 120 117 115 114 114 114 114 113 112 110 109 107 107 108 109 110 111 112 113 115 117 122 126 129 131 131 129 125 122 119 118 119 120 121 122 124 126 130 135 141 148 155 162 166 168 168 165 159 151 143 135 125 116 105 94 83 72 62 55 52 52 53 55 58 62 67 73 80 89 98 108 117 126 135 142 147 150 148 143 134 122 110 100 91 87 86 88 93 100 111 124 139 154 170 184 199 212 223 231 236 239 239 237 233 228 221 214 208 203 199 195 191 187 183 178 173 170 168 167 166 165 166 167 170 173 175 177 176 173 170 167 164 163 163 163 163 160 154 145 135 124 114 107 101 96 91 86 82 80 80 82 85 90 95 100 101 100 95 90 86 82 78 74 71 69 67 66 66 68 71 -9999 -9999 -9999 -9999 -9999 -9999 -9999 -9999 -9999 -9999 -9999 -9999 -9999 -9999 -9999 -9999 -9999 -9999 -9999 -9999 -9999 -9999 -9999 -9999 -9999 -9999 -9999 -9999 -9999 -9999 -9999 -9999 -9999 -9999 -9999 -9999 -9999 -9999 -9999 -9999 -9999 -9999 -9999 -9999 -9999 -9999 -9999 -9999 -9999 -9999 -9999 -9999 -9999 -9999 -9999 -9999 -9999 -9999 -9999 -9999 -9999 -9999 -9999 -9999 -9999 -9999 -9999 -9999 -9999 -9999 -9999 -9999 -9999 -9999 -9999 -9999 -9999 -9999 -9999 -9999 -9999 -9999 -9999 -9999 -9999 -9999 -9999 -9999 -9999 -9999 -9999 -9999 -9999 -9999 -9999 -9999 -9999 -9999 -9999 -9999 -9999 -9999 -9999
-9999 -9999 -9999 -9999 -9999 -9999 -9999 -9999 -9999 -9999 -9999 -9999 -9999 -9999 -9999 -9999 -9999 -9999 -9999 -9999 -9999 -9999 -9999 -9999 -9999 -9999 -9999 -9999 -9999 -9999 -9999 -9999 -9999 -9999 -9999 -9999 -9999 -9999 -9999 -9999 -9999 -9999 -9999 -9999 -9999 -9999 -9999 -9999 -9999 -9999 -9999 -9999 -9999 -9999 -9999 -9999 -9999 -9999 -9999 -9999 -9999 -9999 -9999 -9999 -9999 -9999 -9999 -9999 -9999 -9999 -9999 -9999 -9999 -9999 -9999 -9999 -9999 -9999 -9999 -9999 -9999 -9999 -9999 -9999 -9999 -9999 -9999 -9999 -9999 -9999 -9999 -9999 -9999 -9999 -9999 -9999 -9999 -9999 -9999 -9999 120 118 117 118 118 118 119 119 120 120 122 125 128 132 134 135 134 130 126 120 115 113 113 116 122 129 137 145 150 152 152 149 145 141 136 131 127 124 122 121 121 120 119 117 115 114 113 112 112 114 116 118 119 120 122 123 126 130 134 137 138 137 134 130 126 123 122 122 123 125 127 130 133 137 142 147 154 160 167 171 173 173 169 163 155 147 138 130 120 109 98 85 74 65 57 53 51 51 52 55 58 64 70 77 85 95 105 115 125 134 142 147 149 147 140 131 119 107 97 89 85 85 88 94 102 114 127 143 159 174 189 203 216 226 233 238 239 239 236 231 225 218 211 204 199 193 189 184 179 174 168 163 159 157 155 154 153 154 156 158 161 162 163 161 159 156 154 153 153 154 156 157 156 151 144 135 126 117 110 105 100 94 88 83 79 78 78 80 83 87 91 92 90 87 83 79 76 72 69 67 66 65 64 64 67 70 72 -9999 -9999 -9999 -9999 -9999 -9999 -9999 -9999 -9999 -9999 -9999 -9999 -9999 -9999 -9999 -9999 -9999 -9999 -9999 -9999 -9999 -9999 -9999 -9999 -9999 -9999 -9999 -9999 -9999 -9999 -9999 -9999 -9999 -9999 -9999 -9999 -9999 -9999 -9999 -9999 -9999 -9999 -9999 -9999 -9999 -9999 -9999 -9999 -9999 -9999 -9999 -9999 -9999 -9999 -9999 -9999 -9999 -9999 -9999 -9999 -9999 -9999 -9999 -9999 -9999 -9999 -9999 -9999 -9999 -9999 -9999 -9999 -9999 -9999 -9999 -9999 -9999 -9999 -9999 -9999 -9999 -9999 -9999 -9999 -9999 -9999 -9999 -9999 -9999 -9999 -9999 -9999 -9999 -9999 -9999 -9999 -9999 -9999 -9999 -9999 -9999 -9999
-9999 -9999 -9999 -9999 -9999 -9999 -9999 -9999 -9999 -9999 -9999 -9999 -9999 -9999 -9999 -9999 -9999 -9999 -9999 -9999 -9999 -9999 -9999 -9999 -9999 -9999 -9999 -9999 -9999 -9999 -9999 -9999 -9999 -9999 -9999 -9999 -9999 -9999 -9999 -9999 -9999 -9999 -9999 -9999 -9999 -9999 -9999 -9999 -9999 -9999 -9999 -9999 -9999 -9999 -9999 -9999 -9999 -9999 -9999 -9999 -9999 -9999 -9999 -9999 -9999 -9999 -9999 -9999 -9999 -9999 -9999 -9999 -9999 -9999 -9999 -9999 -9999 -9999 -9999 -9999 -9999 -9999 -9999 -9999 -9999 -9999 -9999 -9999 -9999 -9999 -9999 -9999 -9999 -9999 -9999 -9999 -9999 -9999 125 122 120 119 119 120 121 123 124 124 124 125 126 128 131 134 136 137 137 134 129 124 119 115 115 117 122 129 137 144 150 154 154 153 150 147 143 139 136 133 130 129 128 126 124 122 120 118 117 117 118 120 122 125 127 128 130 132 134 138 141 144 145 143 139 134 130 126 124 125 127 129 132 136 139 144 149 155 160 166 171 176 178 176 172 165 157 149 140 131 122 111 100 87 75 66 58 54 51 50 50 53 57 63 70 77 85 94 105 115 125 134 142 147 149 146 140 130 118 106 96 88 85 85 89 96 105 117 131 147 164 180 194 208 219 228 234 238 239 239 236 230 223 216 208 201 195 190 184 179 173 166 159 153 149 146 144 142 142 143 144 147 148 149 148 146 144 142 140 141 143 146 149 151 150 147 141 134 126 119 113 108 104 98 92 85 80 77 76 76 77 79 81 82 81 79 75 72 70 67 65 64 63 63 63 64 67 70 73 76 80 -9999 -9999 -9999 -9999 -9999 -9999 -9999 -9999 -9999 -9999 -9999 -9999 -9999 -9999 -9999 -9999 -9999 -9999 -9999 -9999 -9999 -9999 -9999 -9999 -9999 -9999 -9999 -9999 -9999 -9999 -9999 -9999 -9999 -9999 -9999 -9999 -9999 -9999 -9999 -9999 -9999 -9999 -9999 -9999 -9999 -9999 -9999 -9999 -9999 -9999 -9999 -9999 -9999 -9999 -9999 -9999 -9999 -9999 -9999 -9999 -9999 -9999 -9999 -9999 -9999 -9999 -9999 -9999 -9999 -9999 -9999 -9999 -9999 -9999 -9999 -9999 -9999 -9999 -9999 -9999 -9999 -9999 -9999 -9999 -9999 -9999 -9999 -9999 -9999 -9999 -9999 -9999 -9999 -9999 -9999 -9999 -9999 -9999 -9999 -9999
-9999 -9999 -9999 -9999 -9999 -9999 -9999 -9999 -9999 -9999 -9999 -9999 -9999 -9999 -9999 -9999 -9999 -9999 -9999 -9999 -9999 -9999 -9999 -9999 -9999 -9999 -9999 -9999 -9999 -9999 -9999 -9999 -9999 -9999 -9999 -9999 -9999 -9999 -9999 -9999 -9999 -9999 -9999 -9999 -9999 -9999 -9999 -9999 -9999 -9999 -9999 -9999 -9999 -9999 -9999 -9999 -9999 -9999 -9999 -9999 -9999 -9999 -9999 -9999 -9999 -9999 -9999 -9999 -9999 -9999 -9999 -9999 -9999 -9999 -9999 -9999 -9999 -9999 -9999 -9999 -9999 -9999 -9999 -9999 -9999 -9999 -9999 -9999 -9999 -9999 -9999 -9999 -9999 -9999 -9999 -9999 -9999 128 124 122 121 121 123 124 126 127 129 129 129 129 130 131 133 136 138 140 139 137 132 127 122 118 117 118 122 128 136 143 150 154 157 157 155 153 150 148 145 142 139 138 136 133 130 127 125 123 122 122 123 125 128 131 133 135 137 140 142 145 149 151 151 149 145 140 134 130 128 129 131 134 137 142 146 151 156 162 167 172 176 180 181 178 173 165 157 148 139 131 121 111 99 87 75 66 59 54 51 50 50 52 57 64 72 80 88 97 107 117 127 135 143 148 149 147 140 130 118 106 96 89 85 86 90 97 107 120 135 151 167 184 199 211 222 229 235 238 239 238 235 230 222 214 207 200 194 187 182 176 169 161 153 146 141 138 135 133 132 132 133 135 135 135 133 132 130 129 129 131 134 139 142 145 145 142 138 132 126 120 115 111 106 101 95 88 81 76 72 70 70 71 73 73 73 71 69 66 64 62 61 60 61 62 63 65 68 71 74 78 82 87 92 -9999 -9999 -9999 -9999 -9999 -9999 -9999 -9999 -9999 -9999 -9999 -9999 -9999 -9999 -9999 -9999 -9999 -9999 -9999 -9999 -9999 -9999 -9999 -9999 -9999 -9999 -9999 -9999 -9999 -9999 -9999 -9999 -9999 -9999 -9999 -9999 -9999 -9999 -9999 -9999 -9999 -9999 -9999 -9999 -9999 -9999 -9999 -9999 -9999 -9999 -9999 -9999 -9999 -9999 -9999 -9999 -9999 -9999 -9999 -9999 -9999 -9999 -9999 -9999 -9999 -9999 -9999 -9999 -9999 -9999 -9999 -9999 -9999 -9999 -9999 -9999 -9999 -9999 -9999 -9999 -9999 -9999 -9999 -9999 -9999 -9999 -9999 -9999 -9999 -9999 -9999 -9999 -9999 -9999 -9999 -9999 -9999 -9999
-9999 -9999 -9999 -9999 -9999 -9999 -9999 -9999 -9999 -9999 -9999 -9999 -9999 -9999 -9999 -9999 -9999 -9999 -9999 -9999 -9999 -9999 -9999 -9999 -9999 -9999 -9999 -9999 -9999 -9999 -9999 -9999 -9999 -9999 -9999 -9999 -9999 -9999 -9999 -9999 -9999 -9999 -9999 -9999 -9999 -9999 -9999 -9999 -9999 -9999 -9999 -9999 -9999 -9999 -9999 -9999 -9999 -9999 -9999 -9999 -9999 -9999 -9999 -9999 -9999 -9999 -9999 -9999 -9999 -9999 -9999 -9999 -9999 -9999 -9999 -9999 -9999 -9999 -9999 -9999 -9999 -9999 -9999 -9999 -9999 -9999 -9999 -9999 -9999 -9999 -9999 -9999 -9999 -9999 -9999 134 130 127 125 124 125 126 128 129 131 133 134 135 135 134 134 135 136 139 141 142 142 139 135 130 125 121 119 119 122 127 134 142 149 155 158 160 159 158 157 156 154 151 149 147 144 141 137 133 131 129 127 127 128 131 134 136 139 142 145 147 150 153 156 159 159 156 152 146 140 136 133 133 135 139 143 148 153 158 163 168 173 177 181 182 182 179 172 164 155 146 137 128 118 108 96 84 73 65 58 53 50 49 49 52 59 67 76 86 94 103 112 121 130 138 145 149 150 147 140 129 117 106 96 89 85 86 91 98 108 121 136 152 170 187 201 213 223 231 236 239 239 238 235 229 222 214 206 200 193 186 180 175 168 160 151 143 137 132 129 125 123 122 123 124 123 122 120 119 118 118 120 123 128 133 137 139 139 137 133 128 123 118 115 111 107 103 96 89 82 75 69 66 65 65 66 67 66 65 63 61 59 59 58 58 60 62 64 67 70 74 78 82 87 92 98 105 -9999 -9999 -9999 -9999 -9999 -9999 -9999 -9999 -9999 -9999 -9999 -9999 -9999 -9999 -9999 -9999 -9999 -9999 -9999 -9999 -9999 -9999 -9999 -9999 -9999 -9999 -9999 -9999 -9999 -9999 -9999 -9999 -9999 -9999 -9999 -9999 -9999 -9999 -9999 -9999 -9999 -9999 -9999 -9999 -9999 -9999 -9999 -9999 -9999 -9999 -9999 -9999 -9999 -9999 -9999 -9999 -9999 -9999 -9999 -9999 -9999 -9999 -9999 -9999 -9999 -9999 -9999 -9999 -9999 -9999 -9999 -9999 -9999 -9999 -9999 -9999 -9999 -9999 -9999 -9999 -9999 -9999 -9999 -9999 -9999 -9999 -9999 -9999 -9999 -9999 -9999 -9999 -9999 -9999 -9999 -9999 -9999
-9999 -9999 -9999 -9999 -9999 -9999 -9999 -9999 -9999 -9999 -9999 -9999 -9999 -9999 -9999 -9999 -9999 -9999 -9999 -9999 -9999 -9999 -9999 -9999 -9999 -9999 -9999 -9999 -9999 -9999 -9999 -9999 -9999 -9999 -9999 -9999 -9999 -9999 -9999 -9999 -9999 -9999 -9999 -9999 -9999 -9999 -9999 -9999 -9999 -9999 -9999 -9999 -9999 -9999 -9999 -9999 -9999 -9999 -9999 -9999 -9999 -9999 -9999 -9999 -9999 -9999 -9999 -9999 -9999 -9999 -9999 -9999 -9999 -9999 -9999 -9999 -9999 -9999 -9999 -9999 -9999 -9999 -9999 -9999 -9999 -9999 -9999 -9999 -9999 -9999 -9999 -9999 -9999 -9999 136 133 130 129 128 129 130 131 133 135 137 139 140 140 140 139 139 138 139 141 143 144 144 142 138 133 128 124 121 121 122 126 133 140 147 154 158 161 163 163 163 162 161 159 157 155 152 148 144 140 137 135 134 133 134 137 139 142 145 149 152 155 158 161 164 167 167 164 160 154 148 143 140 139 141 144 149 154 159 164 168 173 178 182 183 184 182 177 170 162 152 143 133 123 112 101 90 79 69 61 55 51 49 49 51 56 63 72 82 92 101 110 119 127 135 142 147 150 149 146 139 128 116 104 95 88 85 86 91 98 108 120 135 152 170 187 202 214 224 231 236 239 239 238 235 229 222 214 207 201 194 187 181 176 170 161 152 143 136 130 124 119 115 114 114 114 113 111 110 108 108 110 113 118 124 130 133 135 134 132 127 123 118 115 111 109 106 102 97 90 82 74 68 63 61 61 61 61 61 59 58 57 56 57 58 59 61 63 66 69 74 78 83 88 93 99 105 112 117 -9999 -9999 -9999 -9999 -9999 -9999 -9999 -9999 -9999 -9999 -9999 -9999 -9999 -9999 -9999 -9999 -9999 -9999 -9999 -9999 -9999 -9999 -9999 -9999 -9999 -9999 -9999 -9999 -9999 -9999 -9999 -9999 -9999 -9999 -9999 -9999 -9999 -9999 -9999 -9999 -9999 -9999 -9999 -9999 -9999 -9999 -9999 -9999 -9999 -9999 -9999 -9999 -9999 -9999 -9999 -9999 -9999 -9999 -9999 -9999 -9999 -9999 -9999 -9999 -9999 -9999 -9999 -9999 -9999 -9999 -9999 -9999 -9999 -9999 -9999 -9999 -9999 -9999 -9999 -9999 -9999 -9999 -9999 -9999 -9999 -9999 -9999 -9999 -9999 -9999 -9999 -9999 -9999 -9999 -9999 -9999
-9999 -9999 -9999 -9999 -9999 -9999 -9999 -9999 -9999 -9999 -9999 -9999 -9999 -9999 -9999 -9999 -9999 -9999 -9999 -9999 -9999 -9999 -9999 -9999 -9999 -9999 -9999 -9999 -9999 -9999 -9999 -9999 -9999 -9999 -9999 -9999 -9999 -9999 -9999 -9999 -9999 -9999 -9999 -9999 -9999 -9999 -9999 -9999 -9999 -9999 -9999 -9999 -9999 -9999 -9999 -9999 -9999 -9999 -9999 -9999 -9999 -9999 -9999 -9999 -9999 -9999 -9999 -9999 -9999 -9999 -9999 -9999 -9999 -9999 -9999 -9999 -9999 -9999 -9999 -9999 -9999 -9999 -9999 -9999 -9999 -9999 -9999 -9999 -9999 -9999 -9999 -9999 142 138 135 133 132 132 133 134 136 138 140 141 143 145 146 147 146 144 143 143 143 144 146 147 146 144 141 136 131 127 124 123 123 126 132 138 146 152 157 161 164 166 166 166 166 165 164 162 159 154 150 147 144 142 141 141 142 143 146 149 152 156 159 163 166 169 173 175 175 172 168 162 156 151 147 146 147 150 154 159 164 168 173 177 181 184 184 183 179 174 166 158 148 138 128 117 105 93 82 72 63 56 51 48 49 51 54 59 67 76 87 98 108 117 125 133 140 146 149 151 149 144 136 125 112 101 92 86 84 86 90 98 107 119 134 151 169 186 201 214 224 231 236 238 239 238 235 230 223 215 208 201 195 189 183 179 172 163 154 144 136 128 120 114 109 106 105 105 104 103 101 101 102 105 110 117 123 128 131 132 131 127 122 117 113 110 107 105 103 100 95 89 82 74 67 62 59 58 58 58 57 56 55 56 56 57 58 60 62 65 68 73 78 83 89 95 101 107 114 119 124 127 -9999 -9999 -9999 -9999 -9999 -9999 -9999 -9999 -9999 -9999 -9999 -9999 -9999 -9999 -9999 -9999 -9999 -9999 -9999 -9999 -9999 -9999 -9999 -9999 -9999 -9999 -9999 -9999 -9999 -9999 -9999 -9999 -9999 -9999 -9999 -9999 -9999 -9999 -9999 -9999 -9999 -9999 -9999 -9999 -9999 -9999 -9999 -9999 -9999 -9999 -9999 -9999 -9999 -9999 -9999 -9999 -9999 -9999 -9999 -9999 -9999 -9999 -9999 -9999 -9999 -9999 -9999 -9999 -9999 -9999 -9999 -9999 -9999 -9999 -9999 -9999 -9999 -9999 -9999 -9999 -9999 -9999 -9999 -9999 -9999 -9999 -9999 -9999 -9999 -9999 -9999 -9999 -9999 -9999 -9999
-9999 -9999 -9999 -9999 -9999 -9999 -9999 -9999 -9999 -9999 -9999 -9999 -9999 -9999 -9999 -9999 -9999 -9999 -9999 -9999 -9999 -9999 -9999 -9999 -9999 -9999 -9999 -9999 -9999 -9999 -9999 -9999 -9999 -9999 -9999 -9999 -9999 -9999 -9999 -9999 -9999 -9999 -9999 -9999 -9999 -9999 -9999 -9999 -9999 -9999 -9999 -9999 -9999 -9999 -9999 -9999 -9999 -9999 -9999 -9999 -9999 -9999 -9999 -9999 -9999 -9999 -9999 -9999 -9999 -9999 -9999 -9999 -9999 -9999 -9999 -9999 -9999 -9999 -9999 -9999 -9999 -9999 -9999 -9999 -9999 -9999 -9999 -9999 -9999 153 148 144 140 137 135 135 135 136 138 140 142 145 147 149 151 152 153 153 152 150 149 148 147 148 149 150 149 147 144 139 135 130 127 125 125 127 131 137 144 150 156 161 164 167 168 169 170 169 169 167 165 161 157 154 152 150 149 149 150 151 154 156 160 163 167 170 174 178 181 182 182 180 175 170 164 158 155 153 153 155 159 163 168 172 176 179 182 183 183 180 175 168 161 153 144 134 122 110 97 85 73 64 56 51 48 49 50 52 56 63 71 81 93 104 115 124 132 138 144 149 152 152 148 141 131 119 107 96 88 84 83 85 90 97 107 118 132 149 167 184 199 212 223 230 235 238 238 237 234 229 223 216 209 203 197 192 186 180 172 164 154 145 136 126 117 109 104 100 99 98 97 96 96 97 100 104 110 117 124 128 131 131 128 124 118 113 108 105 102 99 98 96 92 87 80 73 66 60 57 56 55 55 54 54 54 55 56 57 59 61 64 67 72 77 83 89 96 103 110 116 122 126 129 131 131 -9999 -9999 -9999 -9999 -9999 -9999 -9999 -9999 -9999 -9999 -9999 -9999 -9999 -9999 -9999 -9999 -9999 -9999 -9999 -9999 -9999 -9999 -9999 -9999 -9999 -9999 -9999 -9999 -9999 -9999 -9999 -9999 -9999 -9999 -9999 -9999 -9999 -9999 -9999 -9999 -9999 -9999 -9999 -9999 -9999 -9999 -9999 -9999 -9999 -9999 -9999 -9999 -9999 -9999 -9999 -9999 -9999 -9999 -9999 -9999 -9999 -9999 -9999 -9999 -9999 -9999 -9999 -9999 -9999 -9999 -9999 -9999 -9999 -9999 -9999 -9999 -9999 -9999 -9999 -9999 -9999 -9999 -9999 -9999 -9999 -9999 -9999 -9999 -9999 -9999 -9999 -9999 -9999 -9999
-9999 -9999 -9999 -9999 -9999 -9999 -9999 -9999 -9999 -9999 -9999 -9999 -9999 -9999 -9999 -9999 -9999 -9999 -9999 -9999 -9999 -9999 -9999 -9999 -9999 -9999 -9999 -9999 -9999 -9999 -9999 -9999 -9999 -9999 -9999 -9999 -9999 -9999 -9999 -9999 -9999 -9999 -9999 -9999 -9999 -9999 -9999 -9999 -9999 -9999 -9999 -9999 -9999 -9999 -9999 -9999 -9999 -9999 -9999 -9999 -9999 -9999 -9999 -9999 -9999 -9999 -9999 -9999 -9999 -9999 -9999 -9999 -9999 -9999 -9999 -9999 -9999 -9999 -9999 -9999 -9999 -9999 -9999 -9999 -9999 -9999 -9999 -9999 161 154 148 144 140 137 137 138 139 142 145 147 150 153 155 157 158 160 160 160 159 157 155 153 152 152 153 153 153 151 147 143 138 134 130 127 127 128 131 137 142 148 154 159 163 167 169 171 173 173 173 172 170 167 164 161 160 159 158 158 159 160 162 164 167 171 175 178 182 185 187 189 188 186 182 176 170 165 161 159 158 159 162 166 170 174 177 180 181 181 179 175 169 162 155 148 140 129 117 103 89 76 65 57 51 48 49 49 51 54 60 67 76 86 98 110 120 130 137 144 149 152 153 151 146 137 125 113 101 91 84 81 81 84 90 97 107 118 131 147 164 181 196 210 220 228 233 236 237 236 234 230 225 218 211 205 199 193 187 179 171 163 153 143 133 123 113 105 99 96 94 93 92 92 93 95 99 105 112 119 126 131 133 131 128 122 115 109 105 100 97 94 92 90 87 83 77 70 64 58 55 54 54 53 53 53 53 54 56 58 60 63 67 70 75 81 88 96 104 111 118 124 129 132 133 132 131 129 128 -9999 -9999 -9999 -9999 -9999 -9999 -9999 -9999 -9999 -9999 -9999 -9999 -9999 -9999 -9999 -9999 -9999 -9999 -9999 -9999 -9999 -9999 -9999 -9999 -9999 -9999 -9999 -9999 -9999 -9999 -9999 -9999 -9999 -9999 -9999 -9999 -9999 -9999 -9999 -9999 -9999 -9999 -9999 -9999 -9999 -9999 -9999 -9999 -9999 -9999 -9999 -9999 -9999 -9999 -9999 -9999 -9999 -9999 -9999 -9999 -9999 -9999 -9999 -9999 -9999 -9999 -9999 -9999 -9999 -9999 -9999 -9999 -9999 -9999 -9999 -9999 -9999 -9999 -9999 -9999 -9999 -9999 -9999 -9999 -9999 -9999 -9999 -9999 -9999 -9999 -9999 -9999
-9999 -9999 -9999 -9999 -9999 -9999 -9999 -9999 -9999 -9999 -9999 -9999 -9999 -9999 -9999 -9999 -9999 -9999 -9999 -9999 -9999 -9999 -9999 -9999 -9999 -9999 -9999 -9999 -9999 -9999 -9999 -9999 -9999 -9999 -9999 -9999 -9999 -9999 -9999 -9999 -9999 -9999 -9999 -9999 -9999 -9999 -9999 -9999 -9999 -9999 -9999 -9999 -9999 -9999 -9999 -9999 -9999 -9999 -9999 -9999 -9999 -9999 -9999 -9999 -9999 -9999 -9999 -9999 -9999 -9999 -9999 -9999 -9999 -9999 -9999 -9999 -9999 -9999 -9999 -9999 -9999 -9999 -9999 -9999 -9999 -9999 181 173 164 157 150 145 141 139 140 141 144 147 151 155 158 161 163 165 167 168 168 168 166 164 161 159 158 158 158 158 157 155 152 147 142 137 133 130 128 129 131 136 140 145 151 157 162 167 170 173 175 176 176 176 175 173 171 169 168 167 166 166 167 168 170 172 175 178 181 185 188 191 192 193 192 190 186 180 175 169 165 163 162 162 165 168 171 174 177 178 178 176 173 168 162 155 149 143 135 125 112 98 83 69 58 51 47 48 48 50 53 57 63 71 81 91 102 113 124 134 142 149 153 154 153 149 142 131 119 106 95 86 81 78 79 83 89 97 107 118 131 146 162 178 193 206 217 225 231 234 236 236 234 231 226 220 212 205 198 192 185 177 169 160 150 139 128 118 109 102 96 92 91 90 89 90 92 95 100 107 115 122 129 134 135 133 128 121 114 108 102 97 93 89 87 84 81 77 72 66 61 56 53 52 52 51 51 51 53 54 57 59 62 65 69 73 78 84 92 100 109 117 125 130 134 135 134 132 129 125 122 120 119 -9999 -9999 -9999 -9999 -9999 -9999 -9999 -9999 -9999 -9999 -9999 -9999 -9999 -9999 -9999 -9999 -9999 -9999 -9999 -9999 -9999 -9999 -9999 -9999 -9999 -9999 -9999 -9999 -9999 -9999 -9999 -9999 -9999 -9999 -9999 -9999 -9999 -9999 -9999 -9999 -9999 -9999 -9999 -9999 -9999 -9999 -9999 -9999 -9999 -9999 -9999 -9999 -9999 -9999 -9999 -9999 -9999 -9999 -9999 -9999 -9999 -9999 -9999 -9999 -9999 -9999 -9999 -9999 -9999 -9999 -9999 -9999 -9999 -9999 -9999 -9999 -9999 -9999 -9999 -9999 -9999 -9999 -9999 -9999 -9999 -9999 -9999 -9999 -9999 -9999
-9999 -9999 -9999 -9999 -9999 -9999 -9999 -9999 -9999 -9999 -9999 -9999 -9999 -9999 -9999 -9999 -9999 -9999 -9999 -9999 -9999 -9999 -9999 -9999 -9999 -9999 -9999 -9999 -9999 -9999 -9999 -9999 -9999 -9999 -9999 -9999 -9999 -9999 -9999 -9999 -9999 -9999 -9999 -9999 -9999 -9999 -9999 -9999 -9999 -9999 -9999 -9999 -9999 -9999 -9999 -9999 -9999 -9999 -9999 -9999 -9999 -9999 -9999 -9999 -9999 -9999 -9999 -9999 -9999 -9999 -9999 -9999 -9999 -9999 -9999 -9999 -9999 -9999 -9999 -9999 -9999 -9999 -9999 -9999 -9999 193 185 177 168 160 154 148 145 143 143 145 149 153 157 162 166 169 173 175 177 177 177 176 174 171 168 166 164 163 163 163 162 159 156 151 146 140 136 132 130 130 132 135 138 144 150 156 161 167 171 175 177 179 180 180 179 178 177 176 175 175 174 174 174 175 177 178 181 184 187 190 192 194 194 194 193 190 186 181 176 170 166 164 162 163 164 167 170 172 173 174 172 169 165 160 154 148 143 137 130 120 107 93 77 62 52 47 47 47 48 51 55 60 67 75 84 94 105 116 127 137 145 151 155 155 152 146 137 126 113 101 90 82 77 76 77 81 88 97 107 118 131 146 160 174 188 201 212 221 228 233 235 235 234 231 226 219 212 204 196 188 181 174 165 156 146 134 123 113 105 99 94 90 88 87 87 88 91 96 102 110 118 126 132 137 137 135 129 122 115 107 101 95 89 85 81 78 75 71 67 62 57 54 51 50 50 50 50 51 53 55 57 60 64 68 72 76 81 88 95 104 113 121 129 134 136 136 134 130 125 121 117 114 112 112 -9999 -9999 -9999 -9999 -9999 -9999 -9999 -9999 -9999 -9999 -9999 -9999 -9999 -9999 -9999 -9999 -9999 -9999 -9999 -9999 -9999 -9999 -9999 -9999 -9999 -9999 -9999 -9999 -9999 -9999 -9999 -9999 -9999 -9999 -9999 -9999 -9999 -9999 -9999 -9999 -9999 -9999 -9999 -9999 -9999 -9999 -9999 -9999 -9999 -9999 -9999 -9999 -9999 -9999 -9999 -9999 -9999 -9999 -9999 -9999 -9999 -9999 -9999 -9999 -9999 -9999 -9999 -9999 -9999 -9999 -9999 -9999 -9999 -9999 -9999 -9999 -9999 -9999 -9999 -9999 -9999 -9999 -9999 -9999 -9999 -9999 -9999 -9999 -9999
-9999 -9999 -9999 -9999 -9999 -9999 -9999 -9999 -9999 -9999 -9999 -9999 -9999 -9999 -9999 -9999 -9999 -9999 -9999 -9999 -9999 -9999 -9999 -9999 -9999 -9999 -9999 -9999 -9999 -9999 -9999 -9999 -9999 -9999 -9999 -9999 -9999 -9999 -9999 -9999 -9999 -9999 -9999 -9999 -9999 -9999 -9999 -9999 -9999 -9999 -9999 -9999 -9999 -9999 -9999 -9999 -9999 -9999 -9999 -9999 -9999 -9999 -9999 -9999 -9999 -9999 -9999 -9999 -9999 -9999 -9999 -9999 -9999 -9999 -9999 -9999 -9999 -9999 -9999 -9999 -9999 -9999 -9999 -9999 205 197 189 181 172 164 157 152 148 146 147 149 153 158 163 168 173 178 182 185 186 186 186 184 181 178 174 172 170 169 168 168 167 164 160 155 149 144 139 135 133 132 133 135 138 143 149 155 161 167 172 176 179 182 184 184 183 183 182 182 182 182 181 181 181 182 182 184 186 188 190 192 194 194 194 193 191 188 183 178 173 168 164 162 160 159 161 163 165 167 167 166 163 160 155 150 145 140 135 131 125 115 103 89 73 57 47 47 47 47 48 52 56 62 69 77 86 96 106 116 127 137 145 151 154 154 150 143 133 121 109 97 87 79 74 73 75 79 87 96 107 119 132 145 159 171 183 195 207 218 226 231 234 235 233 230 224 217 208 199 191 183 176 168 160 151 140 129 118 109 102 97 93 89 86 85 85 88 92 97 104 112 120 128 135 138 139 136 130 123 115 107 100 93 86 80 75 72 68 65 61 57 54 51 50 49 49 49 49 51 53 55 58 61 65 70 74 79 84 90 98 106 115 123 130 135 137 136 133 128 122 116 112 108 106 105 104 -9999 -9999 -9999 -9999 -9999 -9999 -9999 -9999 -9999 -9999 -9999 -9999 -9999 -9999 -9999 -9999 -9999 -9999 -9999 -9999 -9999 -9999 -9999 -9999 -9999 -9999 -9999 -9999 -9999 -9999 -9999 -9999 -9999 -9999 -9999 -9999 -9999 -9999 -9999 -9999 -9999 -9999 -9999 -9999 -9999 -9999 -9999 -9999 -9999 -9999 -9999 -9999 -9999 -9999 -9999 -9999 -9999 -9999 -9999 -9999 -9999 -9999 -9999 -9999 -9999 -9999 -9999 -9999 -9999 -9999 -9999 -9999 -9999 -9999 -9999 -9999 -9999 -9999 -9999 -9999 -9999 -9999 -9999 -9999 -9999 -9999 -9999 -9999
-9999 -9999 -9999 -9999 -9999 -9999 -9999 -9999 -9999 -9999 -9999 -9999 -9999 -9999 -9999 -9999 -9999 -9999 -9999 -9999 -9999 -9999 -9999 -9999 -9999 -9999 -9999 -9999 -9999 -9999 -9999 -9999 -9999 -9999 -9999 -9999 -9999 -9999 -9999 -9999 -9999 -9999 -9999 -9999 -9999 -9999 -9999 -9999 -9999 -9999 -9999 -9999 -9999 -9999 -9999 -9999 -9999 -9999 -9999 -9999 -9999 -9999 -9999 -9999 -9999 -9999 -9999 -9999 -9999 -9999 -9999 -9999 -9999 -9999 -9999 -9999 -9999 -9999 -9999 -9999 -9999 -9999 216 213 207 200 192 183 175 167 160 155 152 150 151 153 157 163 169 175 181 187 192 195 196 196 195 192 188 184 181 178 176 175 175 174 172 169 165 159 153 147 141 137 134 134 134 135 138 142 148 154 160 167 172 177 181 185 187 187 187 187 187 187 188 188 187 187 187 187 187 188 190 192 193 194 194 193 191 189 185 181 177 172 166 161 158 155 153 153 153 155 156 158 158 156 153 149 144 139 135 131 127 124 119 111 100 87 72 56 47 47 46 46 48 52 56 62 69 77 86 95 105 116 126 136 144 150 152 152 147 140 130 118 106 94 84 77 72 71 73 77 85 95 106 119 132 145 157 168 180 192 204 215 224 230 232 232 230 226 220 211 202 193 183 175 167 160 152 143 133 123 113 106 100 96 92 87 84 83 83 87 92 98 105 114 122 130 136 139 139 136 130 122 114 106 98 90 83 76 71 66 63 59 56 54 51 49 48 48 48 49 50 51 53 55 58 62 66 71 76 81 86 92 99 108 116 124 131 135 136 135 131 125 119 113 108 104 101 99 98 98 99 -9999 -9999 -9999 -9999 -9999 -9999 -9999 -9999 -9999 -9999 -9999 -9999 -9999 -9999 -9999 -9999 -9999 -9999 -9999 -9999 -9999 -9999 -9999 -9999 -9999 -9999 -9999 -9999 -9999 -9999 -9999 -9999 -9999 -9999 -9999 -9999 -9999 -9999 -9999 -9999 -9999 -9999 -9999 -9999 -9999 -9999 -9999 -9999 -9999 -9999 -9999 -9999 -9999 -9999 -9999 -9999 -9999 -9999 -9999 -9999 -9999 -9999 -9999 -9999 -9999 -9999 -9999 -9999 -9999 -9999 -9999 -9999 -9999 -9999 -9999 -9999 -9999 -9999 -9999 -9999 -9999 -9999 -9999 -9999 -9999 -9999
-9999 -9999 -9999 -9999 -9999 -9999 -9999 -9999 -9999 -9999 -9999 -9999 -9999 -9999 -9999 -9999 -9999 -9999 -9999 -9999 -9999 -9999 -9999 -9999 -9999 -9999 -9999 -9999 -9999 -9999 -9999 -9999 -9999 -9999 -9999 -9999 -9999 -9999 -9999 -9999 -9999 -9999 -9999 -9999 -9999 -9999 -9999 -9999 -9999 -9999 -9999 -9999 -9999 -9999 -9999 -9999 -9999 -9999 -9999 -9999 -9999 -9999 -9999 -9999 -9999 -9999 -9999 -9999 -9999 -9999 -9999 -9999 -9999 -9999 -9999 -9999 -9999 -9999 -9999 -9999 -9999 218 217 214 207 200 192 183 175 167 162 158 155 154 154 157 161 167 174 181 188 195 201 204 206 206 204 201 196 192 188 185 183 182 181 180 178 175 169 163 156 149 143 138 135 134 135 135 137 141 147 153 159 166 172 177 182 185 188 189 189 189 190 191 191 191 191 191 191 191 191 191 192 193 194 193 192 189 186 182 178 173 168 162 156 151 148 145 143 142 142 144 145 146 146 145 141 137 132 127 123 121 119 117 113 106 97 86 73 58 48 47 46 46 48 51 56 62 68 76 84 93 103 114 125 134 142 147 150 149 144 137 127 115 104 92 83 75 70 69 71 76 84 95 107 119 132 145 156 167 178 190 202 213 222 227 229 228 225 220 213 204 194 184 174 165 158 150 143 134 125 117 109 103 98 94 90 86 83 82 81 86 92 98 106 114 123 130 135 138 138 134 128 120 112 103 95 87 79 72 66 61 58 55 53 50 48 48 48 48 48 48 50 51 53 55 58 62 66 71 77 82 87 93 100 109 117 125 131 135 136 134 130 125 118 111 106 101 98 95 93 93 93 96 -9999 -9999 -9999 -9999 -9999 -9999 -9999 -9999 -9999 -9999 -9999 -9999 -9999 -9999 -9999 -9999 -9999 -9999 -9999 -9999 -9999 -9999 -9999 -9999 -9999 -9999 -9999 -9999 -9999 -9999 -9999 -9999 -9999 -9999 -9999 -9999 -9999 -9999 -9999 -9999 -9999 -9999 -9999 -9999 -9999 -9999 -9999 -9999 -9999 -9999 -9999 -9999 -9999 -9999 -9999 -9999 -9999 -9999 -9999 -9999 -9999 -9999 -9999 -9999 -9999 -9999 -9999 -9999 -9999 -9999 -9999 -9999 -9999 -9999 -9999 -9999 -9999 -9999 -9999 -9999 -9999 -9999 -9999 -9999 -9999
-9999 -9999 -9999 -9999 -9999 -9999 -9999 -9999 -9999 -9999 -9999 -9999 -9999 -9999 -9999 -9999 -9999 -9999 -9999 -9999 -9999 -9999 -9999 -9999 -9999 -9999 -9999 -9999 -9999 -9999 -9999 -9999 -9999 -9999 -9999 -9999 -9999 -9999 -9999 -9999 -9999 -9999 -9999 -9999 -9999 -9999 -9999 -9999 -9999 -9999 -9999 -9999 -9999 -9999 -9999 -9999 -9999 -9999 -9999 -9999 -9999 -9999 -9999 -9999 -9999 -9999 -9999 -9999 -9999 -9999 -9999 -9999 -9999 -9999 -9999 -9999 -9999 -9999 -9999 -9999 219 218 216 212 205 198 189 181 173 167 162 158 157 157 158 160 165 171 179 187 195 203 209 214 216 215 213 210 205 200 196 192 190 189 188 187 184 180 174 166 159 151 145 140 136 134 134 134 135 139 145 151 157 164 170 175 180 184 186 188 189 190 192 193 193 193 193 193 193 193 193 192 192 192 192 191 188 184 179 175 169 163 157 151 145 140 137 134 132 130 130 131 132 133 133 132 129 124 120 115 112 110 110 109 107 103 95 85 74 62 52 47 46 46 47 50 54 59 65 72 81 90 100 111 122 132 140 145 147 146 141 134 124 113 102 91 82 75 70 68 70 76 84 95 107 120 133 145 156 166 176 188 200 211 220 224 225 223 219 212 204 194 184 173 164 155 148 140 133 125 118 111 105 100 96 92 88 85 83 81 80 85 91 97 105 114 122 129 133 135 134 130 124 116 108 99 90 82 74 67 61 57 54 51 49 48 47 46 47 47 47 48 50 51 53 55 58 62 67 72 77 83 88 94 101 109 118 126 132 136 136 135 131 125 118 111 105 99 95 92 89 88 88 90 95 100 -9999 -9999 -9999 -9999 -9999 -9999 -9999 -9999 -9999 -9999 -9999 -9999 -9999 -9999 -9999 -9999 -9999 -9999 -9999 -9999 -9999 -9999 -9999 -9999 -9999 -9999 -9999 -9999 -9999 -9999 -9999 -9999 -9999 -9999 -9999 -9999 -9999 -9999 -9999 -9999 -9999 -9999 -9999 -9999 -9999 -9999 -9999 -9999 -9999 -9999 -9999 -9999 -9999 -9999 -9999 -9999 -9999 -9999 -9999 -9999 -9999 -9999 -9999 -9999 -9999 -9999 -9999 -9999 -9999 -9999 -9999 -9999 -9999 -9999 -9999 -9999 -9999 -9999 -9999 -9999 -9999 -9999 -9999
-9999 -9999 -9999 -9999 -9999 -9999 -9999 -9999 -9999 -9999 -9999 -9999 -9999 -9999 -9999 -9999 -9999 -9999 -9999 -9999 -9999 -9999 -9999 -9999 -9999 -9999 -9999 -9999 -9999 -9999 -9999 -9999 -9999 -9999 -9999 -9999 -9999 -9999 -9999 -9999 -9999 -9999 -9999 -9999 -9999 -9999 -9999 -9999 -9999 -9999 -9999 -9999 -9999 -9999 -9999 -9999 -9999 -9999 -9999 -9999 -9999 -9999 -9999 -9999 -9999 -9999 -9999 -9999 -9999 -9999 -9999 -9999 -9999 -9999 -9999 -9999 -9999 -9999 -9999 219 218 216 213 208 201 193 185 177 170 165 161 159 159 160 161 164 169 176 184 193 202 210 216 222 224 224 222 218 214 208 204 200 198 197 195 194 190 185 178 170 161 153 146 140 136 134 132 131 133 137 142 147 154 160 166 171 176 179 182 184 186 188 190 191 192 193 193 192 192 191 191 190 190 190 189 187 183 178 173 167 160 153 146 140 135 130 126 123 121 119 118 119 120 121 120 119 116 112 108 104 101 101 101 102 102 99 93 85 75 65 56 50 46 45 46 48 51 56 62 69 77 87 98 109 120 129 137 142 144 143 138 131 121 111 100 90 81 74 70 68 71 76 84 95 108 121 133 145 156 166 176 187 198 209 216 220 221 218 212 204 195 185 174 163 154 145 138 131 124 117 111 106 101 97 93 90 87 84 82 80 79 83 89 96 104 113 121 127 130 131 129 125 118 110 102 93 85 77 69 63 58 54 50 48 46 46 46 46 46 46 47 48 50 52 53 55 59 63 68 73 78 84 89 96 103 111 120 128 133 137 137 135 132 126 119 112 105 99 93 89 86 84 84 85 89 94 101 -9999 -9999 -9999 -9999 -9999 -9999 -9999 -9999 -9999 -9999 -9999 -9999 -9999 -9999 -9999 -9999 -9999 -9999 -9999 -9999 -9999 -9999 -9999 -9999 -9999 -9999 -9999 -9999 -9999 -9999 -9999 -9999 -9999 -9999 -9999 -9999 -9999 -9999 -9999 -9999 -9999 -9999 -9999 -9999 -9999 -9999 -9999 -9999 -9999 -9999 -9999 -9999 -9999 -9999 -9999 -9999 -9999 -9999 -9999 -9999 -9999 -9999 -9999 -9999 -9999 -9999 -9999 -9999 -9999 -9999 -9999 -9999 -9999 -9999 -9999 -9999 -9999 -9999 -9999 -9999 -9999 -9999
-9999 -9999 -9999 -9999 -9999 -9999 -9999 -9999 -9999 -9999 -9999 -9999 -9999 -9999 -9999 -9999 -9999 -9999 -9999 -9999 -9999 -9999 -9999 -9999 -9999 -9999 -9999 -9999 -9999 -9999 -9999 -9999 -9999 -9999 -9999 -9999 -9999 -9999 -9999 -9999 -9999 -9999 -9999 -9999 -9999 -9999 -9999 -9999 -9999 -9999 -9999 -9999 -9999 -9999 -9999 -9999 -9999 -9999 -9999 -9999 -9999 -9999 -9999 -9999 -9999 -9999 -9999 -9999 -9999 -9999 -9999 -9999 -9999 -9999 -9999 -9999 -9999 221 219 217 214 211 207 202 194 187 179 172 167 163 161 160 161 163 165 168 174 181 190 199 208 216 222 227 230 231 229 226 222 217 212 209 207 205 203 201 196 190 182 173 164 155 148 141 136 133 130 129 130 133 137 143 149 155 161 166 170 173 176 179 181 183 186 187 189 190 190 189 188 187 187 187 186 186 185 182 178 173 167 160 152 145 138 132 127 123 119 115 112 110 108 108 108 109 108 107 104 101 97 94 92 92 94 96 97 95 91 84 76 67 58 52 47 44 44 45 49 53 59 65 74 84 95 107 117 126 133 138 140 140 135 128 119 108 98 89 81 74 70 68 71 76 84 95 107 120 133 145 156 167 176 187 197 206 213 216 216 212 205 196 187 176 165 154 145 136 129 122 116 110 105 101 97 94 91 88 85 82 80 78 77 81 87 93 102 110 118 124 126 126 123 118 111 103 95 86 78 71 64 59 54 50 48 46 45 44 44 45 46 47 48 50 52 53 55 57 60 65 69 74 80 85 91 98 106 114 123 130 135 138 137 135 133 128 121 113 105 98 92 87 83 80 79 80 83 88 94 99 -9999 -9999 -9999 -9999 -9999 -9999 -9999 -9999 -9999 -9999 -9999 -9999 -9999 -9999 -9999 -9999 -9999 -9999 -9999 -9999 -9999 -9999 -9999 -9999 -9999 -9999 -9999 -9999 -9999 -9999 -9999 -9999 -9999 -9999 -9999 -9999 -9999 -9999 -9999 -9999 -9999 -9999 -9999 -9999 -9999 -9999 -9999 -9999 -9999 -9999 -9999 -9999 -9999 -9999 -9999 -9999 -9999 -9999 -9999 -9999 -9999 -9999 -9999 -9999 -9999 -9999 -9999 -9999 -9999 -9999 -9999 -9999 -9999 -9999 -9999 -9999 -9999 -9999 -9999 -9999 -9999
-9999 -9999 -9999 -9999 -9999 -9999 -9999 -9999 -9999 -9999 -9999 -9999 -9999 -9999 -9999 -9999 -9999 -9999 -9999 -9999 -9999 -9999 -9999 -9999 -9999 -9999 -9999 -9999 -9999 -9999 -9999 -9999 -9999 -9999 -9999 -9999 -9999 -9999 -9999 -9999 -9999 -9999 -9999 -9999 -9999 -9999 -9999 -9999 -9999 -9999 -9999 -9999 -9999 -9999 -9999 -9999 -9999 -9999 -9999 -9999 -9999 -9999 -9999 -9999 -9999 -9999 -9999 -9999 -9999 -9999 -9999 -9999 -9999 -9999 -9999 -9999 222 219 217 213 209 204 199 193 186 179 173 167 163 162 161 162 163 166 169 173 179 187 195 204 213 221 227 231 234 235 234 232 229 225 221 218 216 214 212 208 202 194 185 175 166 156 148 142 136 132 129 127 127 129 133 137 143 149 154 159 163 166 169 172 174 177 180 182 183 184 184 183 182 182 181 181 181 181 180 178 174 168 161 154 147 139 132 127 122 118 114 110 107 104 101 99 98 98 97 96 94 92 89 87 86 86 89 91 93 92 89 83 76 67 59 53 48 45 44 43 46 51 56 63 72 82 93 105 115 123 130 134 136 136 132 125 116 106 96 88 80 74 70 68 71 77 85 95 107 120 133 146 157 167 177 186 195 203 209 211 210 206 199 190 180 169 159 148 138 130 122 115 109 104 100 97 93 90 88 85 82 80 77 75 74 77 83 90 98 107 114 119 121 120 116 110 103 95 87 79 72 65 60 55 51 48 45 43 43 43 43 44 46 48 50 52 54 56 58 60 63 67 70 75 81 86 93 101 110 118 127 133 137 139 138 136 134 128 121 113 104 96 90 84 80 76 74 75 77 81 87 92 97 -9999 -9999 -9999 -9999 -9999 -9999 -9999 -9999 -9999 -9999 -9999 -9999 -9999 -9999 -9999 -9999 -9999 -9999 -9999 -9999 -9999 -9999 -9999 -9999 -9999 -9999 -9999 -9999 -9999 -9999 -9999 -9999 -9999 -9999 -9999 -9999 -9999 -9999 -9999 -9999 -9999 -9999 -9999 -9999 -9999 -9999 -9999 -9999 -9999 -9999 -9999 -9999 -9999 -9999 -9999 -9999 -9999 -9999 -9999 -9999 -9999 -9999 -9999 -9999 -9999 -9999 -9999 -9999 -9999 -9999 -9999 -9999 -9999 -9999 -9999 -9999 -9999 -9999 -9999 -9999
-9999 -9999 -9999 -9999 -9999 -9999 -9999 -9999 -9999 -9999 -9999 -9999 -9999 -9999 -9999 -9999 -9999 -9999 -9999 -9999 -9999 -9999 -9999 -9999 -9999 -9999 -9999 -9999 -9999 -9999 -9999 -9999 -9999 -9999 -9999 -9999 -9999 -9999 -9999 -9999 -9999 -9999 -9999 -9999 -9999 -9999 -9999 -9999 -9999 -9999 -9999 -9999 -9999 -9999 -9999 -9999 -9999 -9999 -9999 -9999 -9999 -9999 -9999 -9999 -9999 -9999 -9999 -9999 -9999 -9999 -9999 -9999 -9999 -9999 -9999 222 218 215 211 207 202 197 191 185 179 173 168 164 162 162 162 164 166 169 173 177 184 192 201 209 217 224 229 233 235 236 236 235 233 231 229 227 225 223 220 215 207 198 188 177 167 158 149 143 137 132 128 125 125 126 128 132 137 142 147 151 155 158 161 164 167 169 172 174 175 176 176 176 175 175 175 175 175 176 175 173 169 163 157 150 143 136 129 124 120 116 112 108 104 100 96 93 91 89 88 87 86 85 83 82 81 83 85 88 89 89 87 83 76 68 60 53 48 45 43 42 44 49 55 61 70 80 91 103 112 120 126 130 132 131 128 121 113 103 94 86 79 74 70 68 71 76 84 95 107 120 133 145 157 167 176 185 193 200 204 206 204 200 193 184 174 165 155 145 135 127 118 111 104 100 96 93 90 88 86 83 80 77 74 72 71 73 78 85 94 102 109 114 115 114 109 102 95 87 80 72 66 60 56 52 49 45 42 41 42 42 42 44 47 49 52 55 57 60 62 64 67 69 72 76 82 89 97 105 114 122 130 135 138 139 137 136 132 127 119 111 102 94 87 81 76 72 70 70 71 75 80 85 90 93 94 -9999 -9999 -9999 -9999 -9999 -9999 -9999 -9999 -9999 -9999 -9999 -9999 -9999 -9999 -9999 -9999 -9999 -9999 -9999 -9999 -9999 -9999 -9999 -9999 -9999 -9999 -9999 -9999 -9999 -9999 -9999 -9999 -9999 -9999 -9999 -9999 -9999 -9999 -9999 -9999 -9999 -9999 -9999 -9999 -9999 -9999 -9999 -9999 -9999 -9999 -9999 -9999 -9999 -9999 -9999 -9999 -9999 -9999 -9999 -9999 -9999 -9999 -9999 -9999 -9999 -9999 -9999 -9999 -9999 -9999 -9999 -9999 -9999 -9999 -9999 -9999 -9999 -9999
-9999 -9999 -9999 -9999 -9999 -9999 -9999 -9999 -9999 -9999 -9999 -9999 -9999 -9999 -9999 -9999 -9999 -9999 -9999 -9999 -9999 -9999 -9999 -9999 -9999 -9999 -9999 -9999 -9999 -9999 -9999 -9999 -9999 -9999 -9999 -9999 -9999 -9999 -9999 -9999 -9999 -9999 -9999 -9999 -9999 -9999 -9999 -9999 -9999 -9999 -9999 -9999 -9999 -9999 -9999 -9999 -9999 -9999 -9999 -9999 -9999 -9999 -9999 -9999 -9999 -9999 -9999 -9999 -9999 -9999 -9999 -9999 -9999 -9999 222 217 213 209 205 200 195 190 184 179 173 168 165 163 162 163 165 167 170 174 178 182 189 197 205 213 219 225 228 231 233 234 235 235 235 235 235 235 234 232 227 221 212 202 191 179 168 159 151 144 137 132 128 125 124 124 125 127 131 135 139 142 146 149 152 155 158 161 164 167 168 169 169 169 169 168 168 169 169 169 169 167 163 158 152 146 140 134 128 123 119 115 111 107 102 97 92 89 86 84 83 82 81 80 79 79 79 80 83 85 86 87 85 81 75 68 60 53 47 44 42 41 43 48 54 61 69 79 90 100 108 116 122 126 128 127 123 116 108 100 92 84 78 73 69 67 70 75 83 93 105 119 132 144 155 166 175 183 191 196 199 200 198 193 186 178 169 161 152 143 134 125 117 109 102 97 93 91 88 86 84 81 78 74 71 68 68 70 74 80 88 96 103 107 109 107 102 95 87 80 73 66 61 56 53 50 47 43 41 41 41 42 43 45 48 52 56 59 62 65 67 70 72 73 75 79 84 92 100 109 118 125 131 134 136 136 135 133 129 123 116 108 99 91 84 78 72 68 66 65 66 69 73 78 83 86 88 88 -9999 -9999 -9999 -9999 -9999 -9999 -9999 -9999 -9999 -9999 -9999 -9999 -9999 -9999 -9999 -9999 -9999 -9999 -9999 -9999 -9999 -9999 -9999 -9999 -9999 -9999 -9999 -9999 -9999 -9999 -9999 -9999 -9999 -9999 -9999 -9999 -9999 -9999 -9999 -9999 -9999 -9999 -9999 -9999 -9999 -9999 -9999 -9999 -9999 -9999 -9999 -9999 -9999 -9999 -9999 -9999 -9999 -9999 -9999 -9999 -9999 -9999 -9999 -9999 -9999 -9999 -9999 -9999 -9999 -9999 -9999 -9999 -9999 -9999 -9999 -9999 -9999
-9999 -9999 -9999 -9999 -9999 -9999 -9999 -9999 -9999 -9999 -9999 -9999 -9999 -9999 -9999 -9999 -9999 -9999 -9999 -9999 -9999 -9999 -9999 -9999 -9999 -9999 -9999 -9999 -9999 -9999 -9999 -9999 -9999 -9999 -9999 -9999 -9999 -9999 -9999 -9999 -9999 -9999 -9999 -9999 -9999 -9999 -9999 -9999 -9999 -9999 -9999 -9999 -9999 -9999 -9999 -9999 -9999 -9999 -9999 -9999 -9999 -9999 -9999 -9999 -9999 -9999 -9999 -9999 -9999 -9999 -9999 -9999 -9999 224 219 213 208 204 199 195 191 186 180 175 170 167 165 164 164 166 168 171 175 179 183 188 194 201 208 214 219 223 225 226 227 229 231 234 236 238 240 241 240 238 233 226 216 205 193 180 169 159 151 144 138 132 128 125 123 122 122 123 125 128 131 134 137 140 143 146 149 153 156 159 161 162 163 163 163 163 163 163 163 163 162 161 157 153 147 142 137 131 126 122 118 115 111 106 101 96 91 87 84 82 80 79 78 77 77 77 78 79 81 82 84 84 83 79 73 66 59 52 47 44 42 41 43 47 53 60 69 78 88 96 104 111 117 121 122 120 117 111 103 95 88 81 75 71 67 66 67 72 80 90 102 116 129 142 154 164 173 181 187 191 192 192 190 185 178 171 164 157 150 142 134 126 118 109 102 97 93 90 87 85 82 80 76 72 68 65 64 66 69 74 81 89 95 100 101 100 95 88 81 74 67 62 57 53 50 47 44 41 40 40 41 42 44 47 51 56 61 65 69 72 74 77 79 80 80 83 88 95 103 112 119 125 130 132 133 132 130 127 123 117 110 102 94 87 80 74 69 65 62 60 61 63 66 71 76 80 83 84 83 -9999 -9999 -9999 -9999 -9999 -9999 -9999 -9999 -9999 -9999 -9999 -9999 -9999 -9999 -9999 -9999 -9999 -9999 -9999 -9999 -9999 -9999 -9999 -9999 -9999 -9999 -9999 -9999 -9999 -9999 -9999 -9999 -9999 -9999 -9999 -9999 -9999 -9999 -9999 -9999 -9999 -9999 -9999 -9999 -9999 -9999 -9999 -9999 -9999 -9999 -9999 -9999 -9999 -9999 -9999 -9999 -9999 -9999 -9999 -9999 -9999 -9999 -9999 -9999 -9999 -9999 -9999 -9999 -9999 -9999 -9999 -9999 -9999 -9999 -9999 -9999
-9999 -9999 -9999 -9999 -9999 -9999 -9999 -9999 -9999 -9999 -9999 -9999 -9999 -9999 -9999 -9999 -9999 -9999 -9999 -9999 -9999 -9999 -9999 -9999 -9999 -9999 -9999 -9999 -9999 -9999 -9999 -9999 -9999 -9999 -9999 -9999 -9999 -9999 -9999 -9999 -9999 -9999 -9999 -9999 -9999 -9999 -9999 -9999 -9999 -9999 -9999 -9999 -9999 -9999 -9999 -9999 -9999 -9999 -9999 -9999 -9999 -9999 -9999 -9999 -9999 -9999 -9999 -9999 -9999 -9999 -9999 -9999 227 221 216 211 206 202 197 193 189 185 180 175 170 168 166 166 167 169 172 176 180 184 189 193 198 204 210 215 217 218 219 219 220 222 226 230 234 239 242 245 245 243 237 229 218 206 193 181 169 159 151 144 138 133 129 126 123 121 119 119 120 122 124 126 128 131 134 137 140 144 148 152 155 157 157 158 158 158 158 158 157 156 155 153 150 146 142 137 133 128 124 121 117 114 110 106 101 96 91 87 84 82 80 79 78 77 76 76 77 78 79 80 80 81 80 76 71 65 58 52 48 44 41 41 43 47 53 60 69 78 86 93 100 107 112 115 115 114 110 105 97 90 83 77 72 68 65 64 65 69 77 87 99 112 126 139 151 162 171 178 183 186 186 184 181 176 170 164 158 154 149 143 136 128 120 112 104 98 93 90 87 84 81 78 74 69 65 63 61 61 63 68 74 81 87 91 93 92 88 83 76 69 63 58 53 50 47 44 41 40 40 40 41 43 46 50 55 60 66 71 76 79 82 84 85 86 87 89 93 98 105 112 119 124 127 129 129 127 124 121 116 110 103 96 89 81 75 69 65 61 58 56 56 58 61 65 69 73 76 79 79 78 -9999 -9999 -9999 -9999 -9999 -9999 -9999 -9999 -9999 -9999 -9999 -9999 -9999 -9999 -9999 -9999 -9999 -9999 -9999 -9999 -9999 -9999 -9999 -9999 -9999 -9999 -9999 -9999 -9999 -9999 -9999 -9999 -9999 -9999 -9999 -9999 -9999 -9999 -9999 -9999 -9999 -9999 -9999 -9999 -9999 -9999 -9999 -9999 -9999 -9999 -9999 -9999 -9999 -9999 -9999 -9999 -9999 -9999 -9999 -9999 -9999 -9999 -9999 -9999 -9999 -9999 -9999 -9999 -9999 -9999 -9999 -9999 -9999 -9999 -9999
-9999 -9999 -9999 -9999 -9999 -9999 -9999 -9999 -9999 -9999 -9999 -9999 -9999 -9999 -9999 -9999 -9999 -9999 -9999 -9999 -9999 -9999 -9999 -9999 -9999 -9999 -9999 -9999 -9999 -9999 -9999 -9999 -9999 -9999 -9999 -9999 -9999 -9999 -9999 -9999 -9999 -9999 -9999 -9999 -9999 -9999 -9999 -9999 -9999 -9999 -9999 -9999 -9999 -9999 -9999 -9999 -9999 -9999 -9999 -9999 -9999 -9999 -9999 -9999 -9999 -9999 -9999 -9999 -9999 -9999 242 234 226 220 215 211 207 203 200 196 192 188 183 178 174 171 170 170 171 173 177 181 185 189 194 198 202 207 210 213 213 213 212 211 212 215 220 225 232 237 242 245 246 244 238 229 218 205 192 179 168 159 151 144 139 134 130 126 123 120 118 116 116 116 117 118 120 122 125 128 132 136 141 145 148 151 152 152 152 152 152 152 150 149 147 145 143 139 136 132 129 126 122 119 115 112 109 105 101 96 92 89 86 84 82 81 79 78 76 76 76 76 76 76 77 77 75 72 68 63 58 52 47 44 41 41 43 47 52 60 68 77 84 90 96 101 105 108 108 106 103 97 91 84 77 72 67 64 62 62 63 67 74 84 95 108 122 136 148 159 168 174 178 180 179 176 172 167 162 156 152 150 147 144 139 132 124 116 108 101 95 91 87 84 80 76 71 67 63 60 58 58 59 63 68 73 78 83 86 85 83 78 72 66 60 55 51 47 44 41 39 39 39 40 41 44 48 53 59 66 72 78 83 87 89 90 90 90 91 92 95 99 104 110 116 120 123 125 124 122 119 115 109 103 97 90 83 76 70 65 61 57 55 53 52 53 56 59 62 66 69 73 75 75 74 72 -9999 -9999 -9999 -9999 -9999 -9999 -9999 -9999 -9999 -9999 -9999 -9999 -9999 -9999 -9999 -9999 -9999 -9999 -9999 -9999 -9999 -9999 -9999 -9999 -9999 -9999 -9999 -9999 -9999 -9999 -9999 -9999 -9999 -9999 -9999 -9999 -9999 -9999 -9999 -9999 -9999 -9999 -9999 -9999 -9999 -9999 -9999 -9999 -9999 -9999 -9999 -9999 -9999 -9999 -9999 -9999 -9999 -9999 -9999 -9999 -9999 -9999 -9999 -9999 -9999 -9999 -9999 -9999 -9999 -9999 -9999 -9999 -9999
-9999 -9999 -9999 -9999 -9999 -9999 -9999 -9999 -9999 -9999 -9999 -9999 -9999 -9999 -9999 -9999 -9999 -9999 -9999 -9999 -9999 -9999 -9999 -9999 -9999 -9999 -9999 -9999 -9999 -9999 -9999 -9999 -9999 -9999 -9999 -9999 -9999 -9999 -9999 -9999 -9999 -9999 -9999 -9999 -9999 -9999 -9999 -9999 -9999 -9999 -9999 -9999 -9999 -9999 -9999 -9999 -9999 -9999 -9999 -9999 -9999 -9999 -9999 -9999 -9999 -9999 -9999 -9999 -9999 251 244 236 228 222 217 214 212 209 205 202 198 193 188 183 179 175 173 173 174 177 180 184 188 193 197 201 205 207 209 209 207 205 203 203 204 208 213 220 227 234 240 243 244 242 237 227 216 203 189 177 166 157 150 144 139 134 131 127 124 120 117 114 112 111 111 111 113 114 117 120 124 128 133 137 141 144 145 146 146 146 145 144 143 141 139 137 135 133 131 128 125 123 121 117 114 111 108 105 101 98 96 93 91 89 88 85 83 80 77 76 75 74 73 72 72 72 71 69 65 61 56 51 47 43 41 40 43 47 51 58 67 74 81 86 91 95 98 100 100 98 94 89 84 77 71 66 62 59 58 59 61 66 72 81 92 104 118 132 144 155 164 170 173 174 172 168 163 158 152 148 146 145 146 145 142 136 129 121 113 105 98 93 88 84 79 74 69 65 62 58 56 55 56 58 61 65 70 75 78 79 78 74 69 63 57 53 48 44 41 39 39 39 39 40 42 45 50 56 63 71 78 85 90 93 95 94 93 92 92 92 94 98 102 107 112 116 119 120 120 117 114 110 104 98 92 85 78 72 67 62 58 55 52 50 49 50 51 53 56 59 62 66 69 71 72 70 67 -9999 -9999 -9999 -9999 -9999 -9999 -9999 -9999 -9999 -9999 -9999 -9999 -9999 -9999 -9999 -9999 -9999 -9999 -9999 -9999 -9999 -9999 -9999 -9999 -9999 -9999 -9999 -9999 -9999 -9999 -9999 -9999 -9999 -9999 -9999 -9999 -9999 -9999 -9999 -9999 -9999 -9999 -9999 -9999 -9999 -9999 -9999 -9999 -9999 -9999 -9999 -9999 -9999 -9999 -9999 -9999 -9999 -9999 -9999 -9999 -9999 -9999 -9999 -9999 -9999 -9999 -9999 -9999 -9999 -9999 -9999 -9999
-9999 -9999 -9999 -9999 -9999 -9999 -9999 -9999 -9999 -9999 -9999 -9999 -9999 -9999 -9999 -9999 -9999 -9999 -9999 -9999 -9999 -9999 -9999 -9999 -9999 -9999 -9999 -9999 -9999 -9999 -9999 -9999 -9999 -9999 -9999 -9999 -9999 -9999 -9999 -9999 -9999 -9999 -9999 -9999 -9999 -9999 -9999 -9999 -9999 -9999 -9999 -9999 -9999 -9999 -9999 -9999 -9999 -9999 -9999 -9999 -9999 -9999 -9999 -9999 -9999 -9999 -9999 -9999 260 254 247 239 232 227 223 220 218 216 213 210 206 201 196 190 185 181 178 176 177 179 182 185 189 193 197 201 203 205 205 203 200 198 195 195 197 201 207 214 222 228 234 238 239 237 231 222 211 198 186 174 164 156 149 143 138 134 131 127 124 120 116 112 109 107 106 105 106 107 110 113 116 120 125 129 133 136 138 139 139 138 137 135 133 132 130 128 127 126 126 125 124 122 120 118 115 111 108 106 103 101 100 99 98 97 95 91 88 84 79 75 73 71 69 68 68 68 67 65 62 59 54 50 46 43 41 40 43 46 50 56 64 71 76 81 85 88 90 91 91 89 86 81 76 70 65 60 57 55 55 57 60 65 71 79 89 101 114 128 140 150 159 165 168 167 164 159 153 148 143 140 140 142 145 146 146 142 135 127 118 109 101 95 89 84 78 73 68 64 60 57 54 53 53 54 56 59 63 67 70 72 72 70 66 61 56 51 47 42 39 39 38 38 39 40 43 47 52 58 66 74 82 89 94 97 98 96 95 92 90 89 90 93 97 102 107 112 115 117 116 114 111 106 101 95 89 82 75 70 64 60 56 52 50 48 47 47 47 48 50 53 56 60 64 67 69 68 66 61 -9999 -9999 -9999 -9999 -9999 -9999 -9999 -9999 -9999 -9999 -9999 -9999 -9999 -9999 -9999 -9999 -9999 -9999 -9999 -9999 -9999 -9999 -9999 -9999 -9999 -9999 -9999 -9999 -9999 -9999 -9999 -9999 -9999 -9999 -9999 -9999 -9999 -9999 -9999 -9999 -9999 -9999 -9999 -9999 -9999 -9999 -9999 -9999 -9999 -9999 -9999 -9999 -9999 -9999 -9999 -9999 -9999 -9999 -9999 -9999 -9999 -9999 -9999 -9999 -9999 -9999 -9999 -9999 -9999 -9999 -9999
-9999 -9999 -9999 -9999 -9999 -9999 -9999 -9999 -9999 -9999 -9999 -9999 -9999 -9999 -9999 -9999 -9999 -9999 -9999 -9999 -9999 -9999 -9999 -9999 -9999 -9999 -9999 -9999 -9999 -9999 -9999 -9999 -9999 -9999 -9999 -9999 -9999 -9999 -9999 -9999 -9999 -9999 -9999 -9999 -9999 -9999 -9999 -9999 -9999 -9999 -9999 -9999 -9999 -9999 -9999 -9999 -9999 -9999 -9999 -9999 -9999 -9999 -9999 -9999 -9999 -9999 -9999 269 264 257 250 244 237 232 229 226 225 223 221 218 214 210 204 198 192 186 181 179 178 179 181 184 187 190 193 196 199 200 199 196 193 190 188 188 191 195 201 208 215 220 225 229 230 228 223 214 204 193 181 171 162 154 147 141 137 133 130 127 123 119 114 110 106 103 101 100 100 101 103 106 109 112 116 120 124 127 129 130 130 128 126 125 123 122 121 120 120 121 122 123 123 123 121 119 117 114 110 108 107 106 105 106 106 105 103 99 94 88 81 75 71 68 66 64 63 63 63 62 59 56 52 48 44 42 40 40 42 45 48 53 59 65 70 74 77 79 81 81 81 79 77 73 69 64 59 55 52 51 52 55 58 63 70 78 87 98 110 123 135 145 152 157 159 157 153 147 142 137 133 132 134 138 143 148 149 147 141 133 124 114 105 98 91 84 78 73 68 64 60 56 53 51 50 50 51 54 57 60 63 66 67 66 63 59 54 50 45 41 39 38 37 37 38 40 43 47 53 59 67 75 82 89 94 97 97 95 92 89 86 85 85 87 91 97 103 108 112 114 114 113 110 106 100 95 89 82 76 70 64 59 54 51 49 47 46 45 45 45 46 48 52 56 59 63 65 66 64 61 56 -9999 -9999 -9999 -9999 -9999 -9999 -9999 -9999 -9999 -9999 -9999 -9999 -9999 -9999 -9999 -9999 -9999 -9999 -9999 -9999 -9999 -9999 -9999 -9999 -9999 -9999 -9999 -9999 -9999 -9999 -9999 -9999 -9999 -9999 -9999 -9999 -9999 -9999 -9999 -9999 -9999 -9999 -9999 -9999 -9999 -9999 -9999 -9999 -9999 -9999 -9999 -9999 -9999 -9999 -9999 -9999 -9999 -9999 -9999 -9999 -9999 -9999 -9999 -9999 -9999 -9999 -9999 -9999 -9999 -9999
-9999 -9999 -9999 -9999 -9999 -9999 -9999 -9999 -9999 -9999 -9999 -9999 -9999 -9999 -9999 -9999 -9999 -9999 -9999 -9999 -9999 -9999 -9999 -9999 -9999 -9999 -9999 -9999 -9999 -9999 -9999 -9999 -9999 -9999 -9999 -9999 -9999 -9999 -9999 -9999 -9999 -9999 -9999 -9999 -9999 -9999 -9999 -9999 -9999 -9999 -9999 -9999 -9999 -9999 -9999 -9999 -9999 -9999 -9999 -9999 -9999 -9999 -9999 -9999 -9999 -9999 275 271 267 261 255 249 243 238 235 233 232 230 228 226 223 218 213 206 199 191 185 180 178 177 178 180 182 184 187 189 191 191 190 187 185 182 181 182 185 190 195 201 206 211 215 218 218 217 212 205 197 187 177 167 159 151 145 139 135 131 128 125 121 117 113 108 104 100 98 96 95 96 97 99 101 104 107 111 114 117 119 119 119 117 115 114 113 111 111 111 113 115 118 121 123 123 122 121 120 117 115 113 111 111 111 112 113 112 110 106 100 92 84 76 70 66 63 61 60 59 59 58 56 54 50 47 43 41 40 40 41 43 45 49 54 59 63 66 68 70 71 71 71 70 68 66 62 58 54 51 49 48 50 53 58 63 69 76 85 96 107 118 129 137 144 147 148 145 141 135 130 125 123 124 128 135 142 149 153 152 147 139 129 119 110 101 93 86 80 74 68 64 60 55 52 50 48 48 48 49 52 54 57 60 62 62 61 57 53 49 45 41 38 37 35 36 38 40 43 46 52 58 65 72 80 86 91 93 93 92 89 85 82 81 81 83 87 92 98 104 108 111 113 112 110 106 102 97 91 84 77 71 65 59 54 51 48 46 45 44 43 43 43 45 48 52 56 59 62 63 62 59 55 50 -9999 -9999 -9999 -9999 -9999 -9999 -9999 -9999 -9999 -9999 -9999 -9999 -9999 -9999 -9999 -9999 -9999 -9999 -9999 -9999 -9999 -9999 -9999 -9999 -9999 -9999 -9999 -9999 -9999 -9999 -9999 -9999 -9999 -9999 -9999 -9999 -9999 -9999 -9999 -9999 -9999 -9999 -9999 -9999 -9999 -9999 -9999 -9999 -9999 -9999 -9999 -9999 -9999 -9999 -9999 -9999 -9999 -9999 -9999 -9999 -9999 -9999 -9999 -9999 -9999 -9999 -9999 -9999 -9999
-9999 -9999 -9999 -9999 -9999 -9999 -9999 -9999 -9999 -9999 -9999 -9999 -9999 -9999 -9999 -9999 -9999 -9999 -9999 -9999 -9999 -9999 -9999 -9999 -9999 -9999 -9999 -9999 -9999 -9999 -9999 -9999 -9999 -9999 -9999 -9999 -9999 -9999 -9999 -9999 -9999 -9999 -9999 -9999 -9999 -9999 -9999 -9999 -9999 -9999 -9999 -9999 -9999 -9999 -9999 -9999 -9999 -9999 -9999 -9999 -9999 -9999 -9999 -9999 -9999 280 277 274 269 264 259 253 248 244 242 240 239 237 236 234 230 226 220 213 205 196 188 181 176 173 173 174 175 176 178 179 180 181 180 178 176 175 175 177 180 184 189 193 197 200 203 205 206 205 201 196 189 181 172 164 156 149 142 137 132 128 125 122 119 115 110 106 101 98 95 93 92 91 92 93 94 96 99 102 104 106 108 107 107 106 104 102 102 101 102 103 106 109 113 118 121 123 123 123 122 121 119 117 116 115 116 117 118 117 115 111 104 96 87 79 71 66 62 59 58 57 56 55 53 51 48 46 43 41 40 40 40 41 43 46 49 52 55 58 60 60 61 62 62 61 60 58 55 53 50 47 46 46 48 52 57 63 69 75 83 93 102 112 120 128 133 135 135 132 127 122 118 115 114 117 124 132 142 150 156 156 152 144 134 124 114 106 98 90 83 76 70 65 60 55 52 50 48 46 46 47 48 50 53 55 58 58 58 55 52 48 44 41 38 36 35 36 38 40 42 45 49 55 61 68 75 81 85 87 87 86 84 81 78 77 77 79 82 87 93 100 105 109 111 112 111 108 104 99 94 87 80 73 67 60 55 51 48 46 44 43 42 41 41 42 45 48 52 56 59 60 59 57 53 49 44 -9999 -9999 -9999 -9999 -9999 -9999 -9999 -9999 -9999 -9999 -9999 -9999 -9999 -9999 -9999 -9999 -9999 -9999 -9999 -9999 -9999 -9999 -9999 -9999 -9999 -9999 -9999 -9999 -9999 -9999 -9999 -9999 -9999 -9999 -9999 -9999 -9999 -9999 -9999 -9999 -9999 -9999 -9999 -9999 -9999 -9999 -9999 -9999 -9999 -9999 -9999 -9999 -9999 -9999 -9999 -9999 -9999 -9999 -9999 -9999 -9999 -9999 -9999 -9999 -9999 -9999 -9999 -9999
-9999 -9999 -9999 -9999 -9999 -9999 -9999 -9999 -9999 -9999 -9999 -9999 -9999 -9999 -9999 -9999 -9999 -9999 -9999 -9999 -9999 -9999 -9999 -9999 -9999 -9999 -9999 -9999 -9999 -9999 -9999 -9999 -9999 -9999 -9999 -9999 -9999 -9999 -9999 -9999 -9999 -9999 -9999 -9999 -9999 -9999 -9999 -9999 -9999 -9999 -9999 -9999 -9999 -9999 -9999 -9999 -9999 -9999 -9999 -9999 -9999 -9999 -9999 -9999 284 282 280 276 272 267 262 257 253 249 247 246 245 243 242 240 237 233 227 219 209 199 189 180 174 170 168 167 167 168 169 169 170 170 170 170 169 168 169 171 174 178 181 184 187 189 191 193 194 193 191 187 181 175 168 161 153 146 139 134 129 125 121 118 115 111 107 103 99 95 92 90 89 88 88 88 89 90 91 93 94 96 96 96 95 94 92 91 92 92 93 95 98 103 108 113 117 121 123 123 122 121 119 118 117 116 117 119 120 119 117 114 108 99 90 82 74 68 62 58 56 55 54 52 51 49 47 45 43 41 41 40 40 40 40 41 42 45 47 50 51 52 53 54 54 54 53 52 50 48 46 44 43 44 47 51 56 61 67 73 80 88 96 103 110 116 119 120 119 117 113 109 106 104 106 111 120 130 142 152 159 161 157 150 140 129 120 111 103 95 88 80 73 67 61 57 53 50 49 47 46 46 46 47 49 51 53 54 54 53 50 46 43 40 38 36 34 36 37 39 40 43 46 51 57 63 69 74 77 79 80 80 78 75 73 73 73 74 78 84 90 96 102 107 110 111 111 110 106 102 97 91 84 76 69 62 56 52 48 46 44 42 41 40 40 40 42 45 49 52 55 56 56 54 50 46 42 38 -9999 -9999 -9999 -9999 -9999 -9999 -9999 -9999 -9999 -9999 -9999 -9999 -9999 -9999 -9999 -9999 -9999 -9999 -9999 -9999 -9999 -9999 -9999 -9999 -9999 -9999 -9999 -9999 -9999 -9999 -9999 -9999 -9999 -9999 -9999 -9999 -9999 -9999 -9999 -9999 -9999 -9999 -9999 -9999 -9999 -9999 -9999 -9999 -9999 -9999 -9999 -9999 -9999 -9999 -9999 -9999 -9999 -9999 -9999 -9999 -9999 -9999 -9999 -9999 -9999 -9999 -9999
-9999 -9999 -9999 -9999 -9999 -9999 -9999 -9999 -9999 -9999 -9999 -9999 -9999 -9999 -9999 -9999 -9999 -9999 -9999 -9999 -9999 -9999 -9999 -9999 -9999 -9999 -9999 -9999 -9999 -9999 -9999 -9999 -9999 -9999 -9999 -9999 -9999 -9999 -9999 -9999 -9999 -9999 -9999 -9999 -9999 -9999 -9999 -9999 -9999 -9999 -9999 -9999 -9999 -9999 -9999 -9999 -9999 -9999 -9999 -9999 -9999 -9999 -9999 288 287 285 283 280 276 271 266 262 257 254 252 251 250 248 247 245 242 237 230 222 212 200 189 179 171 166 163 161 160 160 160 160 161 161 161 161 162 162 163 166 169 171 174 176 177 178 179 180 181 181 180 177 173 168 163 156 149 142 136 130 125 120 117 114 111 107 104 100 97 93 90 88 86 85 84 84 84 84 84 85 86 86 87 86 85 83 82 82 82 83 84 86 90 95 101 106 112 116 118 119 118 117 117 116 116 116 117 118 120 120 118 115 110 102 94 85 77 69 63 58 56 54 52 51 50 48 47 45 43 42 41 40 39 39 39 38 38 39 41 42 42 44 46 47 47 48 48 47 45 44 42 41 41 42 45 49 53 58 63 68 75 81 87 93 98 101 104 104 103 102 99 97 95 96 100 107 117 130 142 153 161 164 162 155 146 135 126 117 109 101 93 85 78 71 65 60 56 53 51 49 47 46 45 45 46 48 49 50 50 49 47 44 42 39 37 35 34 36 37 38 39 41 44 48 52 57 62 66 69 71 72 72 71 70 69 68 69 71 75 80 86 93 99 105 109 111 111 110 108 105 100 94 87 79 71 64 57 53 49 46 44 42 41 40 39 39 41 43 46 49 51 52 51 50 47 43 39 35 33 -9999 -9999 -9999 -9999 -9999 -9999 -9999 -9999 -9999 -9999 -9999 -9999 -9999 -9999 -9999 -9999 -9999 -9999 -9999 -9999 -9999 -9999 -9999 -9999 -9999 -9999 -9999 -9999 -9999 -9999 -9999 -9999 -9999 -9999 -9999 -9999 -9999 -9999 -9999 -9999 -9999 -9999 -9999 -9999 -9999 -9999 -9999 -9999 -9999 -9999 -9999 -9999 -9999 -9999 -9999 -9999 -9999 -9999 -9999 -9999 -9999 -9999 -9999 -9999 -9999 -9999
