ncols         404
nrows         49
xllcorner     4297873.42531
yllcorner     1930206.10873
cellsize      25
NODATA_value  -9999
-9999 -9999 -9999 -9999 -9999 -9999 -9999 -9999 -9999 -9999 -9999 -9999 -9999 -9999 -9999 -9999 -9999 -9999 -9999 -9999 -9999 -9999 -9999 -9999 -9999 -9999 -9999 -9999 -9999 -9999 -9999 -9999 314 318 322 326 330 333 335 336 336 335 334 333 331 329 327 325 322 319 315 310 306 300 294 288 282 276 269 263 257 251 245 242 240 241 245 250 257 265 272 279 286 292 297 303 310 319 327 336 345 354 362 369 374 377 378 377 376 375 376 376 375 371 361 346 331 319 302 284 270 259 254 253 253 254 255 254 253 251 248 245 240 235 229 221 213 204 196 189 183 179 176 173 170 166 161 157 155 153 154 157 160 164 167 168 168 167 166 164 161 157 153 147 140 133 125 117 109 102 96 90 85 79 74 69 65 61 58 54 51 48 45 43 41 39 36 34 31 30 29 28 27 26 24 23 23 23 23 25 26 29 31 34 37 40 45 50 57 65 74 84 94 104 113 120 125 129 133 137 141 146 152 159 167 176 184 191 197 201 202 201 198 192 186 179 174 169 164 159 153 147 140 132 124 116 108 102 97 92 87 83 79 75 70 64 56 49 41 36 31 28 25 24 24 24 24 24 24 23 20 17 15 13 12 11 10 9 9 8 7 6 6 5 4 3 2 2 2 2 2 1 1 1 1 1 1 1 1 0 -9999 -9999 -9999 -9999 -9999 -9999 -9999 -9999 -9999 -9999 -9999 -9999 -9999 -9999 -9999 -9999 -9999 -9999 -9999 -9999 -9999 -9999 -9999 -9999 -9999 -9999 -9999 -9999 -9999 -9999 -9999 -9999 -9999 -9999 -9999 -9999 -9999 -9999 -9999 -9999 -9999 -9999 -9999 -9999 -9999 -9999 -9999 -9999 -9999 -9999 -9999 -9999 -9999 -9999 -9999 -9999 -9999 -9999 -9999 -9999 -9999 -9999 -9999 -9999 -9999 -9999 -9999 -9999 -9999 -9999 -9999 -9999 -9999 -9999 -9999 -9999 -9999 -9999 -9999 -9999 -9999 -9999 -9999 -9999 -9999 -9999 -9999 -9999 -9999 -9999 -9999 -9999 -9999 -9999 -9999 -9999 -9999 -9999 -9999 -9999 -9999 -9999 -9999 -9999 -9999 -9999 -9999 -9999 -9999 -9999 -9999 -9999 -9999 -9999 -9999 -9999 -9999 -9999 -9999 -9999 -9999 -9999 -9999 -9999
-9999 -9999 -9999 -9999 -9999 -9999 -9999 -9999 -9999 -9999 -9999 -9999 -9999 -9999 -9999 -9999 -9999 -9999 -9999 -9999 -9999 -9999 -9999 -9999 -9999 -9999 -9999 -9999 -9999 -9999 -9999 309 313 317 322 326 330 333 335 336 336 336 335 335 334 333 331 329 326 323 319 315 310 305 299 294 288 281 274 267 260 253 246 242 240 241 245 250 257 265 272 280 287 292 297 303 311 319 329 338 347 356 363 369 373 375 374 372 370 369 368 368 368 365 358 346 331 314 295 277 263 252 246 243 243 243 244 243 242 241 238 235 231 226 220 214 206 198 190 184 179 175 172 169 166 162 157 154 151 150 150 153 156 160 162 164 163 162 159 157 154 151 146 140 134 128 121 113 106 100 95 91 86 81 76 72 68 64 61 57 54 52 49 47 44 41 38 34 31 30 29 28 27 26 24 23 23 23 23 24 26 28 30 33 35 38 42 46 52 59 67 76 85 95 104 111 116 120 123 127 133 139 146 153 160 169 177 184 190 194 196 196 193 189 183 176 171 166 162 156 150 144 138 132 126 119 112 107 102 97 91 86 82 77 72 65 57 50 43 38 33 30 27 26 26 26 26 25 25 23 21 18 15 14 13 12 11 10 10 9 8 7 6 5 4 3 2 2 2 2 2 1 1 1 1 1 1 1 0 0 -9999 -9999 -9999 -9999 -9999 -9999 -9999 -9999 -9999 -9999 -9999 -9999 -9999 -9999 -9999 -9999 -9999 -9999 -9999 -9999 -9999 -9999 -9999 -9999 -9999 -9999 -9999 -9999 -9999 -9999 -9999 -9999 -9999 -9999 -9999 -9999 -9999 -9999 -9999 -9999 -9999 -9999 -9999 -9999 -9999 -9999 -9999 -9999 -9999 -9999 -9999 -9999 -9999 -9999 -9999 -9999 -9999 -9999 -9999 -9999 -9999 -9999 -9999 -9999 -9999 -9999 -9999 -9999 -9999 -9999 -9999 -9999 -9999 -9999 -9999 -9999 -9999 -9999 -9999 -9999 -9999 -9999 -9999 -9999 -9999 -9999 -9999 -9999 -9999 -9999 -9999 -9999 -9999 -9999 -9999 -9999 -9999 -9999 -9999 -9999 -9999 -9999 -9999 -9999 -9999 -9999 -9999 -9999 -9999 -9999 -9999 -9999 -9999 -9999 -9999 -9999 -9999 -9999 -9999 -9999 -9999 -9999 -9999 -9999
-9999 -9999 -9999 -9999 -9999 -9999 -9999 -9999 -9999 -9999 -9999 -9999 -9999 -9999 -9999 -9999 -9999 -9999 -9999 -9999 -9999 -9999 -9999 -9999 -9999 -9999 -9999 -9999 -9999 -9999 303 307 311 317 322 326 330 332 334 335 336 336 336 336 336 335 334 331 328 325 322 318 314 309 304 299 293 286 277 269 261 254 247 242 240 241 245 250 257 264 272 279 286 292 297 304 312 322 332 342 351 360 366 371 374 375 373 370 367 364 361 359 359 358 353 344 331 313 291 272 256 245 239 236 233 233 233 233 232 230 228 224 221 217 212 205 198 191 185 179 174 170 167 165 161 158 153 150 148 147 147 149 151 154 157 157 157 155 152 149 146 142 138 133 127 122 116 110 104 98 94 90 86 82 78 74 71 67 63 59 57 55 53 51 48 44 40 36 32 30 28 27 26 25 24 24 23 22 22 23 25 27 29 32 34 36 39 43 47 53 60 68 77 86 94 101 107 111 114 119 125 133 141 148 156 164 171 178 183 187 190 190 188 184 179 174 169 164 160 154 148 143 138 133 128 123 118 112 107 101 95 89 83 78 72 65 58 51 45 40 36 32 30 29 28 28 27 26 26 24 22 19 17 15 14 13 12 11 11 10 9 8 7 6 5 4 3 2 2 2 2 2 2 1 1 1 1 1 0 0 -9999 -9999 -9999 -9999 -9999 -9999 -9999 -9999 -9999 -9999 -9999 -9999 -9999 -9999 -9999 -9999 -9999 -9999 -9999 -9999 -9999 -9999 -9999 -9999 -9999 -9999 -9999 -9999 -9999 -9999 -9999 -9999 -9999 -9999 -9999 -9999 -9999 -9999 -9999 -9999 -9999 -9999 -9999 -9999 -9999 -9999 -9999 -9999 -9999 -9999 -9999 -9999 -9999 -9999 -9999 -9999 -9999 -9999 -9999 -9999 -9999 -9999 -9999 -9999 -9999 -9999 -9999 -9999 -9999 -9999 -9999 -9999 -9999 -9999 -9999 -9999 -9999 -9999 -9999 -9999 -9999 -9999 -9999 -9999 -9999 -9999 -9999 -9999 -9999 -9999 -9999 -9999 -9999 -9999 -9999 -9999 -9999 -9999 -9999 -9999 -9999 -9999 -9999 -9999 -9999 -9999 -9999 -9999 -9999 -9999 -9999 -9999 -9999 -9999 -9999 -9999 -9999 -9999 -9999 -9999 -9999 -9999 -9999 -9999
-9999 -9999 -9999 -9999 -9999 -9999 -9999 -9999 -9999 -9999 -9999 -9999 -9999 -9999 -9999 -9999 -9999 -9999 -9999 -9999 -9999 -9999 -9999 -9999 -9999 -9999 -9999 -9999 -9999 -9999 301 305 310 315 321 325 329 331 333 334 335 336 336 337 337 336 334 332 329 327 324 321 317 312 307 302 296 288 279 270 262 254 248 243 241 241 244 249 255 262 270 277 284 290 297 305 315 325 336 347 356 365 371 374 376 376 374 370 364 359 353 350 351 351 345 337 326 306 285 266 248 238 234 229 225 223 222 222 221 220 217 214 211 207 203 197 191 184 179 174 169 165 162 159 156 153 149 146 144 143 143 144 146 148 150 150 149 146 144 141 138 134 129 125 120 116 110 105 100 95 91 88 85 82 78 75 71 67 64 60 58 57 56 55 52 48 43 37 33 30 28 27 26 25 24 24 23 22 22 23 24 26 28 31 33 35 37 39 43 48 55 62 69 77 85 91 97 102 106 112 119 128 137 145 153 161 167 173 177 181 184 184 183 180 175 171 167 163 158 153 148 143 139 135 132 127 123 118 112 105 98 91 84 77 71 64 58 52 47 42 38 35 33 32 31 30 29 28 27 26 24 21 18 16 15 14 13 12 12 11 9 8 7 6 5 4 3 3 3 2 2 2 2 2 1 1 1 1 0 -9999 -9999 -9999 -9999 -9999 -9999 -9999 -9999 -9999 -9999 -9999 -9999 -9999 -9999 -9999 -9999 -9999 -9999 -9999 -9999 -9999 -9999 -9999 -9999 -9999 -9999 -9999 -9999 -9999 -9999 -9999 -9999 -9999 -9999 -9999 -9999 -9999 -9999 -9999 -9999 -9999 -9999 -9999 -9999 -9999 -9999 -9999 -9999 -9999 -9999 -9999 -9999 -9999 -9999 -9999 -9999 -9999 -9999 -9999 -9999 -9999 -9999 -9999 -9999 -9999 -9999 -9999 -9999 -9999 -9999 -9999 -9999 -9999 -9999 -9999 -9999 -9999 -9999 -9999 -9999 -9999 -9999 -9999 -9999 -9999 -9999 -9999 -9999 -9999 -9999 -9999 -9999 -9999 -9999 -9999 -9999 -9999 -9999 -9999 -9999 -9999 -9999 -9999 -9999 -9999 -9999 -9999 -9999 -9999 -9999 -9999 -9999 -9999 -9999 -9999 -9999 -9999 -9999 -9999 -9999 -9999 -9999 -9999 -9999 -9999
-9999 -9999 -9999 -9999 -9999 -9999 -9999 -9999 -9999 -9999 -9999 -9999 -9999 -9999 -9999 -9999 -9999 -9999 -9999 -9999 -9999 -9999 -9999 -9999 -9999 -9999 -9999 -9999 -9999 296 299 303 307 313 318 323 327 330 332 333 334 335 336 336 336 336 334 332 330 328 325 322 318 313 308 303 296 288 280 271 263 255 248 244 242 242 244 248 253 259 266 273 281 288 296 306 316 328 340 351 361 370 376 379 380 380 377 370 362 354 347 343 344 344 338 328 314 291 273 258 241 233 228 222 217 213 212 212 211 209 206 203 201 198 194 190 184 178 173 167 163 159 156 154 151 148 145 142 140 138 138 139 140 141 142 142 141 138 136 133 129 125 121 117 113 109 105 100 95 91 87 85 82 79 76 73 69 66 63 59 58 58 58 58 56 51 45 39 34 31 28 27 26 25 24 23 23 22 21 22 23 25 27 30 32 34 35 37 40 44 50 55 62 68 75 81 87 93 97 104 112 123 133 142 151 158 164 169 173 176 177 178 177 174 172 169 166 162 158 153 148 143 139 137 134 131 127 121 115 108 100 92 84 76 70 64 58 54 49 45 41 39 36 35 33 32 31 31 30 28 26 23 21 19 17 15 15 14 13 12 11 9 8 7 6 5 4 4 3 3 3 3 2 2 1 1 1 1 0 -9999 -9999 -9999 -9999 -9999 -9999 -9999 -9999 -9999 -9999 -9999 -9999 -9999 -9999 -9999 -9999 -9999 -9999 -9999 -9999 -9999 -9999 -9999 -9999 -9999 -9999 -9999 -9999 -9999 -9999 -9999 -9999 -9999 -9999 -9999 -9999 -9999 -9999 -9999 -9999 -9999 -9999 -9999 -9999 -9999 -9999 -9999 -9999 -9999 -9999 -9999 -9999 -9999 -9999 -9999 -9999 -9999 -9999 -9999 -9999 -9999 -9999 -9999 -9999 -9999 -9999 -9999 -9999 -9999 -9999 -9999 -9999 -9999 -9999 -9999 -9999 -9999 -9999 -9999 -9999 -9999 -9999 -9999 -9999 -9999 -9999 -9999 -9999 -9999 -9999 -9999 -9999 -9999 -9999 -9999 -9999 -9999 -9999 -9999 -9999 -9999 -9999 -9999 -9999 -9999 -9999 -9999 -9999 -9999 -9999 -9999 -9999 -9999 -9999 -9999 -9999 -9999 -9999 -9999 -9999 -9999 -9999 -9999 -9999 -9999
-9999 -9999 -9999 -9999 -9999 -9999 -9999 -9999 -9999 -9999 -9999 -9999 -9999 -9999 -9999 -9999 -9999 -9999 -9999 -9999 -9999 -9999 -9999 -9999 -9999 -9999 -9999 -9999 -9999 295 297 300 305 310 315 320 323 326 329 331 333 334 335 336 336 335 334 332 330 328 325 322 318 313 308 302 295 287 278 270 262 255 249 246 244 243 244 247 250 255 261 268 277 285 295 305 316 328 341 353 365 375 382 385 387 386 381 371 359 348 339 336 337 337 331 319 302 276 259 248 233 226 221 215 210 206 204 203 202 199 196 194 191 188 185 181 176 170 165 160 156 153 151 148 146 144 141 139 136 133 132 132 132 133 134 133 132 130 127 125 121 118 114 111 107 103 99 94 90 86 83 80 78 75 72 69 65 63 61 58 58 58 58 59 58 54 48 41 35 31 28 26 25 25 24 23 22 21 21 22 23 24 27 29 31 33 34 36 38 41 45 50 55 60 66 72 78 83 88 95 104 115 125 135 145 154 161 166 169 170 171 170 169 168 166 165 163 160 156 152 148 143 140 137 135 132 128 123 117 110 101 93 84 76 70 64 59 55 52 48 45 42 40 38 36 35 34 33 32 31 29 27 24 22 19 18 17 16 15 14 12 11 9 8 7 6 5 4 4 3 3 3 2 2 1 1 1 0 0 -9999 -9999 -9999 -9999 -9999 -9999 -9999 -9999 -9999 -9999 -9999 -9999 -9999 -9999 -9999 -9999 -9999 -9999 -9999 -9999 -9999 -9999 -9999 -9999 -9999 -9999 -9999 -9999 -9999 -9999 -9999 -9999 -9999 -9999 -9999 -9999 -9999 -9999 -9999 -9999 -9999 -9999 -9999 -9999 -9999 -9999 -9999 -9999 -9999 -9999 -9999 -9999 -9999 -9999 -9999 -9999 -9999 -9999 -9999 -9999 -9999 -9999 -9999 -9999 -9999 -9999 -9999 -9999 -9999 -9999 -9999 -9999 -9999 -9999 -9999 -9999 -9999 -9999 -9999 -9999 -9999 -9999 -9999 -9999 -9999 -9999 -9999 -9999 -9999 -9999 -9999 -9999 -9999 -9999 -9999 -9999 -9999 -9999 -9999 -9999 -9999 -9999 -9999 -9999 -9999 -9999 -9999 -9999 -9999 -9999 -9999 -9999 -9999 -9999 -9999 -9999 -9999 -9999 -9999 -9999 -9999 -9999 -9999 -9999 -9999
-9999 -9999 -9999 -9999 -9999 -9999 -9999 -9999 -9999 -9999 -9999 -9999 -9999 -9999 -9999 -9999 -9999 -9999 -9999 -9999 -9999 -9999 -9999 -9999 -9999 -9999 -9999 -9999 293 293 295 298 302 306 311 315 319 322 325 328 331 333 334 335 336 335 333 331 329 327 325 321 316 311 306 300 292 283 275 268 261 255 250 247 246 244 244 245 247 251 256 263 272 282 292 303 314 326 339 352 366 379 388 392 394 393 385 370 356 343 332 329 330 330 323 311 292 267 249 238 226 220 216 210 204 200 197 196 194 191 188 185 182 179 176 172 167 162 157 153 150 147 145 144 142 140 138 135 131 128 125 124 123 124 124 124 124 122 120 117 114 111 108 104 101 97 93 88 84 80 77 75 72 70 67 63 60 58 57 57 58 58 59 60 60 56 50 42 36 31 28 26 25 25 24 23 22 21 21 21 22 24 26 28 30 32 34 36 37 39 42 46 50 54 59 64 69 74 79 87 96 105 115 125 135 145 154 160 162 163 163 162 161 160 159 159 158 156 154 151 147 143 140 137 134 131 128 123 117 110 101 93 85 77 71 65 61 57 54 52 49 47 44 41 39 37 37 36 35 35 33 31 28 26 23 21 19 18 17 16 15 12 10 9 7 6 5 5 4 4 3 3 3 2 2 1 1 0 0 -9999 -9999 -9999 -9999 -9999 -9999 -9999 -9999 -9999 -9999 -9999 -9999 -9999 -9999 -9999 -9999 -9999 -9999 -9999 -9999 -9999 -9999 -9999 -9999 -9999 -9999 -9999 -9999 -9999 -9999 -9999 -9999 -9999 -9999 -9999 -9999 -9999 -9999 -9999 -9999 -9999 -9999 -9999 -9999 -9999 -9999 -9999 -9999 -9999 -9999 -9999 -9999 -9999 -9999 -9999 -9999 -9999 -9999 -9999 -9999 -9999 -9999 -9999 -9999 -9999 -9999 -9999 -9999 -9999 -9999 -9999 -9999 -9999 -9999 -9999 -9999 -9999 -9999 -9999 -9999 -9999 -9999 -9999 -9999 -9999 -9999 -9999 -9999 -9999 -9999 -9999 -9999 -9999 -9999 -9999 -9999 -9999 -9999 -9999 -9999 -9999 -9999 -9999 -9999 -9999 -9999 -9999 -9999 -9999 -9999 -9999 -9999 -9999 -9999 -9999 -9999 -9999 -9999 -9999 -9999 -9999 -9999 -9999 -9999 -9999
-9999 -9999 -9999 -9999 -9999 -9999 -9999 -9999 -9999 -9999 -9999 -9999 -9999 -9999 -9999 -9999 -9999 -9999 -9999 -9999 -9999 -9999 -9999 -9999 -9999 -9999 -9999 -9999 293 292 293 296 299 302 306 310 314 318 321 325 328 331 332 334 334 334 332 330 328 326 323 319 314 309 304 297 288 279 271 264 259 254 251 248 246 244 242 242 243 246 251 258 267 277 287 299 310 322 335 348 364 380 391 397 399 396 386 369 356 342 328 323 324 323 316 303 287 264 243 230 223 218 213 207 202 197 194 191 188 185 182 178 174 170 166 161 157 153 149 146 144 142 141 140 139 138 135 132 128 122 119 116 115 115 115 116 115 114 112 110 108 105 102 99 95 91 86 82 77 74 71 69 66 63 61 58 55 53 53 53 55 58 60 61 61 56 50 43 36 31 27 26 25 24 23 22 21 21 21 21 22 24 26 28 30 32 34 36 37 38 40 43 46 50 54 58 63 67 73 80 88 97 105 114 123 134 144 150 153 153 153 152 151 150 150 150 150 149 148 147 145 142 139 135 132 129 126 123 117 109 101 93 85 78 72 67 63 59 57 55 53 51 47 44 41 40 39 39 39 39 38 36 33 30 27 25 23 21 20 19 17 14 11 9 8 7 6 5 5 4 4 3 3 2 2 1 1 0 -9999 -9999 -9999 -9999 -9999 -9999 -9999 -9999 -9999 -9999 -9999 -9999 -9999 -9999 -9999 -9999 -9999 -9999 -9999 -9999 -9999 -9999 -9999 -9999 -9999 -9999 -9999 -9999 -9999 -9999 -9999 -9999 -9999 -9999 -9999 -9999 -9999 -9999 -9999 -9999 -9999 -9999 -9999 -9999 -9999 -9999 -9999 -9999 -9999 -9999 -9999 -9999 -9999 -9999 -9999 -9999 -9999 -9999 -9999 -9999 -9999 -9999 -9999 -9999 -9999 -9999 -9999 -9999 -9999 -9999 -9999 -9999 -9999 -9999 -9999 -9999 -9999 -9999 -9999 -9999 -9999 -9999 -9999 -9999 -9999 -9999 -9999 -9999 -9999 -9999 -9999 -9999 -9999 -9999 -9999 -9999 -9999 -9999 -9999 -9999 -9999 -9999 -9999 -9999 -9999 -9999 -9999 -9999 -9999 -9999 -9999 -9999 -9999 -9999 -9999 -9999 -9999 -9999 -9999 -9999 -9999 -9999 -9999 -9999 -9999 -9999
-9999 -9999 -9999 -9999 -9999 -9999 -9999 -9999 -9999 -9999 -9999 -9999 -9999 -9999 -9999 -9999 -9999 -9999 -9999 -9999 -9999 -9999 -9999 -9999 -9999 -9999 -9999 294 293 292 292 293 296 298 301 305 309 313 317 321 325 328 329 331 332 332 330 327 325 323 321 317 312 307 302 294 284 274 266 261 256 252 250 248 245 242 239 238 239 242 247 253 261 271 282 293 305 316 329 343 360 377 390 397 398 394 383 370 358 343 329 322 320 317 310 299 285 266 247 234 226 220 214 208 202 197 193 190 187 183 179 175 170 164 158 153 149 146 143 141 139 138 137 137 137 136 133 130 125 119 114 109 107 107 107 107 107 107 105 104 102 100 97 94 90 85 80 76 72 68 66 63 61 58 56 54 52 49 48 49 51 55 59 60 59 55 49 42 36 30 27 26 25 24 23 22 21 20 20 21 22 24 26 28 30 32 34 36 38 38 39 41 44 47 51 55 59 64 70 77 85 92 99 105 113 123 133 139 141 142 142 141 140 139 139 140 141 142 142 141 140 138 136 132 129 127 124 121 116 109 102 94 86 79 74 69 65 62 60 58 56 54 51 47 44 42 41 42 42 42 43 41 39 36 32 29 26 24 23 21 20 16 13 10 8 7 6 5 5 4 4 3 3 2 2 1 1 0 -9999 -9999 -9999 -9999 -9999 -9999 -9999 -9999 -9999 -9999 -9999 -9999 -9999 -9999 -9999 -9999 -9999 -9999 -9999 -9999 -9999 -9999 -9999 -9999 -9999 -9999 -9999 -9999 -9999 -9999 -9999 -9999 -9999 -9999 -9999 -9999 -9999 -9999 -9999 -9999 -9999 -9999 -9999 -9999 -9999 -9999 -9999 -9999 -9999 -9999 -9999 -9999 -9999 -9999 -9999 -9999 -9999 -9999 -9999 -9999 -9999 -9999 -9999 -9999 -9999 -9999 -9999 -9999 -9999 -9999 -9999 -9999 -9999 -9999 -9999 -9999 -9999 -9999 -9999 -9999 -9999 -9999 -9999 -9999 -9999 -9999 -9999 -9999 -9999 -9999 -9999 -9999 -9999 -9999 -9999 -9999 -9999 -9999 -9999 -9999 -9999 -9999 -9999 -9999 -9999 -9999 -9999 -9999 -9999 -9999 -9999 -9999 -9999 -9999 -9999 -9999 -9999 -9999 -9999 -9999 -9999 -9999 -9999 -9999 -9999 -9999
-9999 -9999 -9999 -9999 -9999 -9999 -9999 -9999 -9999 -9999 -9999 -9999 -9999 -9999 -9999 -9999 -9999 -9999 -9999 -9999 -9999 -9999 -9999 -9999 -9999 -9999 296 295 293 292 291 291 293 294 297 300 304 308 313 317 321 324 325 327 329 329 327 325 323 321 318 314 310 305 299 291 281 271 263 257 253 250 247 244 241 238 235 234 234 237 242 249 256 265 276 287 298 310 322 336 352 369 381 387 389 385 375 369 358 344 332 324 321 316 308 299 287 272 257 244 235 227 219 211 205 199 196 192 189 185 181 176 170 163 156 150 147 143 140 138 136 134 134 134 134 133 131 128 123 117 110 104 101 100 100 100 100 100 100 99 98 97 94 91 87 82 76 72 68 65 62 61 59 56 54 52 50 47 45 45 47 51 54 55 54 51 46 40 34 30 27 25 25 24 22 22 21 20 20 21 22 24 26 28 30 32 34 37 38 39 39 41 44 47 50 55 59 64 70 78 85 91 96 100 106 114 123 129 131 131 131 130 129 128 129 130 132 133 134 134 134 133 131 128 126 124 122 119 115 110 103 96 88 82 77 72 68 65 63 61 59 57 54 50 47 44 44 44 45 46 47 47 45 41 37 34 30 28 26 24 21 18 14 10 8 7 6 5 5 4 3 3 3 2 2 2 1 0 -9999 -9999 -9999 -9999 -9999 -9999 -9999 -9999 -9999 -9999 -9999 -9999 -9999 -9999 -9999 -9999 -9999 -9999 -9999 -9999 -9999 -9999 -9999 -9999 -9999 -9999 -9999 -9999 -9999 -9999 -9999 -9999 -9999 -9999 -9999 -9999 -9999 -9999 -9999 -9999 -9999 -9999 -9999 -9999 -9999 -9999 -9999 -9999 -9999 -9999 -9999 -9999 -9999 -9999 -9999 -9999 -9999 -9999 -9999 -9999 -9999 -9999 -9999 -9999 -9999 -9999 -9999 -9999 -9999 -9999 -9999 -9999 -9999 -9999 -9999 -9999 -9999 -9999 -9999 -9999 -9999 -9999 -9999 -9999 -9999 -9999 -9999 -9999 -9999 -9999 -9999 -9999 -9999 -9999 -9999 -9999 -9999 -9999 -9999 -9999 -9999 -9999 -9999 -9999 -9999 -9999 -9999 -9999 -9999 -9999 -9999 -9999 -9999 -9999 -9999 -9999 -9999 -9999 -9999 -9999 -9999 -9999 -9999 -9999 -9999 -9999
-9999 -9999 -9999 -9999 -9999 -9999 -9999 -9999 -9999 -9999 -9999 -9999 -9999 -9999 -9999 -9999 -9999 -9999 -9999 -9999 -9999 -9999 -9999 -9999 -9999 -9999 298 296 294 292 291 290 290 292 294 297 300 304 309 313 316 319 321 323 325 325 324 322 320 318 315 312 307 302 296 288 278 268 260 254 250 246 243 239 236 233 231 230 230 233 238 244 251 259 268 279 290 302 315 329 343 356 366 372 374 373 367 364 356 345 335 329 323 317 309 302 292 280 267 255 245 235 226 218 210 205 201 198 195 191 187 182 176 168 160 154 149 145 141 137 135 133 131 131 131 131 129 125 121 115 108 102 98 96 95 95 96 96 96 96 96 95 93 90 86 80 75 70 66 64 62 61 60 58 56 53 50 47 44 43 44 46 48 49 48 45 41 37 33 29 26 25 24 23 22 21 20 19 20 21 22 24 26 28 30 32 35 37 39 39 40 41 43 47 51 56 61 66 73 80 87 93 96 99 103 109 116 121 122 122 122 121 120 120 120 121 123 125 126 126 126 125 124 122 121 120 119 117 114 110 105 98 91 85 80 75 72 69 67 65 63 60 56 52 49 47 46 46 47 49 51 51 50 46 42 38 34 31 28 26 22 19 15 11 8 7 6 5 4 4 3 3 3 3 2 2 1 0 -9999 -9999 -9999 -9999 -9999 -9999 -9999 -9999 -9999 -9999 -9999 -9999 -9999 -9999 -9999 -9999 -9999 -9999 -9999 -9999 -9999 -9999 -9999 -9999 -9999 -9999 -9999 -9999 -9999 -9999 -9999 -9999 -9999 -9999 -9999 -9999 -9999 -9999 -9999 -9999 -9999 -9999 -9999 -9999 -9999 -9999 -9999 -9999 -9999 -9999 -9999 -9999 -9999 -9999 -9999 -9999 -9999 -9999 -9999 -9999 -9999 -9999 -9999 -9999 -9999 -9999 -9999 -9999 -9999 -9999 -9999 -9999 -9999 -9999 -9999 -9999 -9999 -9999 -9999 -9999 -9999 -9999 -9999 -9999 -9999 -9999 -9999 -9999 -9999 -9999 -9999 -9999 -9999 -9999 -9999 -9999 -9999 -9999 -9999 -9999 -9999 -9999 -9999 -9999 -9999 -9999 -9999 -9999 -9999 -9999 -9999 -9999 -9999 -9999 -9999 -9999 -9999 -9999 -9999 -9999 -9999 -9999 -9999 -9999 -9999 -9999
-9999 -9999 -9999 -9999 -9999 -9999 -9999 -9999 -9999 -9999 -9999 -9999 -9999 -9999 -9999 -9999 -9999 -9999 -9999 -9999 -9999 -9999 -9999 -9999 -9999 301 299 297 295 293 290 289 288 290 292 294 297 301 305 309 311 314 317 319 320 321 320 319 317 315 312 308 304 298 292 285 276 267 259 252 247 242 238 234 230 227 226 225 226 229 233 239 245 252 260 270 282 294 308 321 333 342 350 355 359 360 360 357 352 345 338 332 326 319 312 305 296 286 275 264 253 243 234 225 218 212 208 206 203 199 195 191 184 177 170 162 155 150 145 140 136 133 130 129 129 128 126 123 118 113 107 102 97 95 94 93 94 94 94 94 94 94 93 90 86 81 76 71 67 65 64 64 63 62 60 56 52 48 44 42 41 42 43 43 42 40 37 35 31 28 26 25 24 23 22 21 20 19 19 21 22 24 26 28 30 32 34 36 38 39 40 41 44 47 52 58 64 70 76 84 91 96 99 102 104 108 112 115 116 117 117 116 115 115 115 115 116 118 118 118 118 117 116 115 114 113 113 113 112 109 105 100 94 88 83 79 76 73 71 69 66 63 59 55 51 49 48 48 49 52 54 55 54 51 47 42 38 34 30 26 23 19 15 11 8 7 6 5 4 3 3 3 3 3 2 2 1 -9999 -9999 -9999 -9999 -9999 -9999 -9999 -9999 -9999 -9999 -9999 -9999 -9999 -9999 -9999 -9999 -9999 -9999 -9999 -9999 -9999 -9999 -9999 -9999 -9999 -9999 -9999 -9999 -9999 -9999 -9999 -9999 -9999 -9999 -9999 -9999 -9999 -9999 -9999 -9999 -9999 -9999 -9999 -9999 -9999 -9999 -9999 -9999 -9999 -9999 -9999 -9999 -9999 -9999 -9999 -9999 -9999 -9999 -9999 -9999 -9999 -9999 -9999 -9999 -9999 -9999 -9999 -9999 -9999 -9999 -9999 -9999 -9999 -9999 -9999 -9999 -9999 -9999 -9999 -9999 -9999 -9999 -9999 -9999 -9999 -9999 -9999 -9999 -9999 -9999 -9999 -9999 -9999 -9999 -9999 -9999 -9999 -9999 -9999 -9999 -9999 -9999 -9999 -9999 -9999 -9999 -9999 -9999 -9999 -9999 -9999 -9999 -9999 -9999 -9999 -9999 -9999 -9999 -9999 -9999 -9999 -9999 -9999 -9999 -9999 -9999 -9999
-9999 -9999 -9999 -9999 -9999 -9999 -9999 -9999 -9999 -9999 -9999 -9999 -9999 -9999 -9999 -9999 -9999 -9999 -9999 -9999 -9999 -9999 -9999 -9999 -9999 301 300 298 295 292 290 288 287 288 289 291 294 297 300 304 307 310 313 315 316 317 316 316 315 312 309 305 300 295 289 282 274 266 258 251 244 239 233 229 225 222 220 220 221 224 228 233 238 244 251 261 272 284 298 312 322 329 336 341 345 349 351 351 349 345 339 333 327 321 314 307 299 291 282 271 261 250 241 232 225 220 216 214 212 209 205 200 194 187 180 172 164 157 150 144 138 134 130 127 125 124 122 120 117 113 108 103 99 97 96 95 94 94 93 93 94 94 93 92 88 84 79 74 71 69 69 70 70 69 66 61 56 51 46 42 40 38 38 38 37 36 34 32 30 27 25 24 23 22 21 20 19 19 19 21 23 24 26 28 29 31 33 35 37 38 39 41 44 48 53 59 66 72 80 87 95 101 104 106 108 110 112 113 114 114 114 113 113 112 111 111 112 113 113 112 111 110 108 107 106 106 106 107 107 107 104 100 95 90 86 82 79 77 75 72 69 65 61 56 53 50 48 49 51 54 57 58 58 55 51 46 41 35 31 26 22 18 14 10 8 6 6 5 4 3 3 3 3 3 3 2 0 -9999 -9999 -9999 -9999 -9999 -9999 -9999 -9999 -9999 -9999 -9999 -9999 -9999 -9999 -9999 -9999 -9999 -9999 -9999 -9999 -9999 -9999 -9999 -9999 -9999 -9999 -9999 -9999 -9999 -9999 -9999 -9999 -9999 -9999 -9999 -9999 -9999 -9999 -9999 -9999 -9999 -9999 -9999 -9999 -9999 -9999 -9999 -9999 -9999 -9999 -9999 -9999 -9999 -9999 -9999 -9999 -9999 -9999 -9999 -9999 -9999 -9999 -9999 -9999 -9999 -9999 -9999 -9999 -9999 -9999 -9999 -9999 -9999 -9999 -9999 -9999 -9999 -9999 -9999 -9999 -9999 -9999 -9999 -9999 -9999 -9999 -9999 -9999 -9999 -9999 -9999 -9999 -9999 -9999 -9999 -9999 -9999 -9999 -9999 -9999 -9999 -9999 -9999 -9999 -9999 -9999 -9999 -9999 -9999 -9999 -9999 -9999 -9999 -9999 -9999 -9999 -9999 -9999 -9999 -9999 -9999 -9999 -9999 -9999 -9999 -9999 -9999
-9999 -9999 -9999 -9999 -9999 -9999 -9999 -9999 -9999 -9999 -9999 -9999 -9999 -9999 -9999 -9999 -9999 -9999 -9999 -9999 -9999 -9999 -9999 -9999 302 302 300 298 295 292 289 287 286 286 287 288 290 293 296 299 302 305 308 311 312 313 312 312 311 309 306 302 297 292 286 279 273 265 257 250 242 236 230 225 221 218 216 215 216 219 222 226 231 236 242 251 262 274 287 300 310 317 324 329 335 340 344 345 345 343 338 332 326 320 314 308 301 293 285 276 267 257 247 239 233 228 225 222 220 217 213 208 203 196 189 180 172 163 155 148 141 135 129 125 122 121 119 117 115 112 109 105 103 101 100 98 97 95 93 93 93 94 94 93 90 87 83 79 77 76 76 77 78 76 72 66 60 53 48 42 39 36 35 34 33 32 31 30 28 26 25 23 22 21 20 19 19 18 19 22 23 25 26 27 29 30 32 34 35 37 39 41 44 49 54 60 67 74 82 90 98 104 108 111 111 112 112 113 113 114 113 114 114 113 110 109 110 111 110 109 107 104 102 100 98 98 99 100 101 101 100 97 93 89 86 83 81 79 77 74 71 66 61 56 52 49 47 48 51 54 58 60 60 58 54 49 43 37 31 26 21 17 13 10 8 6 5 5 4 3 3 3 3 3 3 2 0 -9999 -9999 -9999 -9999 -9999 -9999 -9999 -9999 -9999 -9999 -9999 -9999 -9999 -9999 -9999 -9999 -9999 -9999 -9999 -9999 -9999 -9999 -9999 -9999 -9999 -9999 -9999 -9999 -9999 -9999 -9999 -9999 -9999 -9999 -9999 -9999 -9999 -9999 -9999 -9999 -9999 -9999 -9999 -9999 -9999 -9999 -9999 -9999 -9999 -9999 -9999 -9999 -9999 -9999 -9999 -9999 -9999 -9999 -9999 -9999 -9999 -9999 -9999 -9999 -9999 -9999 -9999 -9999 -9999 -9999 -9999 -9999 -9999 -9999 -9999 -9999 -9999 -9999 -9999 -9999 -9999 -9999 -9999 -9999 -9999 -9999 -9999 -9999 -9999 -9999 -9999 -9999 -9999 -9999 -9999 -9999 -9999 -9999 -9999 -9999 -9999 -9999 -9999 -9999 -9999 -9999 -9999 -9999 -9999 -9999 -9999 -9999 -9999 -9999 -9999 -9999 -9999 -9999 -9999 -9999 -9999 -9999 -9999 -9999 -9999 -9999 -9999
-9999 -9999 -9999 -9999 -9999 -9999 -9999 -9999 -9999 -9999 -9999 -9999 -9999 -9999 -9999 -9999 -9999 -9999 -9999 -9999 -9999 -9999 -9999 -9999 303 302 300 297 293 290 288 286 285 284 284 285 286 288 290 293 297 300 303 305 307 308 308 308 307 306 303 300 295 289 283 277 271 264 256 249 242 235 228 223 218 215 212 211 211 214 217 220 224 228 235 243 252 263 275 287 297 305 312 319 325 332 336 338 339 338 334 329 324 319 314 308 302 296 288 280 271 262 253 245 239 235 231 229 227 224 220 215 209 203 195 186 176 167 158 150 142 134 128 123 119 117 116 114 113 112 110 108 106 105 103 102 100 97 94 93 93 94 94 94 92 90 87 84 83 82 83 84 84 82 77 70 63 56 49 43 39 35 33 32 31 30 29 28 27 25 24 23 21 20 19 18 18 17 19 22 24 25 26 27 28 30 31 33 35 37 40 43 46 50 55 61 68 76 84 92 100 106 110 112 113 112 112 113 113 113 113 114 115 114 110 109 109 110 109 107 104 100 96 93 91 91 91 92 93 93 92 91 88 85 84 83 81 79 77 74 71 66 60 55 50 46 45 46 49 53 57 60 61 59 56 50 44 37 31 26 20 16 12 9 7 6 5 5 4 3 3 2 3 3 2 1 0 -9999 -9999 -9999 -9999 -9999 -9999 -9999 -9999 -9999 -9999 -9999 -9999 -9999 -9999 -9999 -9999 -9999 -9999 -9999 -9999 -9999 -9999 -9999 -9999 -9999 -9999 -9999 -9999 -9999 -9999 -9999 -9999 -9999 -9999 -9999 -9999 -9999 -9999 -9999 -9999 -9999 -9999 -9999 -9999 -9999 -9999 -9999 -9999 -9999 -9999 -9999 -9999 -9999 -9999 -9999 -9999 -9999 -9999 -9999 -9999 -9999 -9999 -9999 -9999 -9999 -9999 -9999 -9999 -9999 -9999 -9999 -9999 -9999 -9999 -9999 -9999 -9999 -9999 -9999 -9999 -9999 -9999 -9999 -9999 -9999 -9999 -9999 -9999 -9999 -9999 -9999 -9999 -9999 -9999 -9999 -9999 -9999 -9999 -9999 -9999 -9999 -9999 -9999 -9999 -9999 -9999 -9999 -9999 -9999 -9999 -9999 -9999 -9999 -9999 -9999 -9999 -9999 -9999 -9999 -9999 -9999 -9999 -9999 -9999 -9999 -9999 -9999
-9999 -9999 -9999 -9999 -9999 -9999 -9999 -9999 -9999 -9999 -9999 -9999 -9999 -9999 -9999 -9999 -9999 -9999 -9999 -9999 -9999 -9999 -9999 305 302 300 297 294 291 288 286 284 283 282 281 281 282 282 284 287 290 293 296 299 301 302 303 303 302 301 300 296 292 287 281 275 269 262 255 248 241 234 228 222 216 212 209 207 207 209 212 215 218 223 229 237 245 253 264 275 285 293 301 308 314 321 325 328 330 330 328 325 321 318 314 309 304 298 291 284 276 267 258 250 244 240 237 234 232 228 224 219 212 205 197 188 178 168 158 150 141 133 126 121 116 113 112 111 110 110 110 110 109 107 106 103 101 98 95 92 92 93 94 94 93 91 90 88 87 87 87 88 88 85 79 72 65 57 51 44 39 36 33 32 30 29 28 27 26 25 23 22 21 19 18 18 17 17 19 22 25 26 26 28 29 30 32 34 36 39 42 45 48 52 56 62 69 77 86 94 101 107 111 112 112 112 112 112 112 112 112 114 115 114 111 110 110 110 108 105 101 96 91 87 85 84 84 85 85 84 83 82 81 79 79 80 80 78 76 72 68 63 57 51 46 43 42 43 45 49 54 57 59 58 55 50 44 37 31 25 19 15 11 9 7 6 5 4 4 3 3 2 2 2 2 0 -9999 -9999 -9999 -9999 -9999 -9999 -9999 -9999 -9999 -9999 -9999 -9999 -9999 -9999 -9999 -9999 -9999 -9999 -9999 -9999 -9999 -9999 -9999 -9999 -9999 -9999 -9999 -9999 -9999 -9999 -9999 -9999 -9999 -9999 -9999 -9999 -9999 -9999 -9999 -9999 -9999 -9999 -9999 -9999 -9999 -9999 -9999 -9999 -9999 -9999 -9999 -9999 -9999 -9999 -9999 -9999 -9999 -9999 -9999 -9999 -9999 -9999 -9999 -9999 -9999 -9999 -9999 -9999 -9999 -9999 -9999 -9999 -9999 -9999 -9999 -9999 -9999 -9999 -9999 -9999 -9999 -9999 -9999 -9999 -9999 -9999 -9999 -9999 -9999 -9999 -9999 -9999 -9999 -9999 -9999 -9999 -9999 -9999 -9999 -9999 -9999 -9999 -9999 -9999 -9999 -9999 -9999 -9999 -9999 -9999 -9999 -9999 -9999 -9999 -9999 -9999 -9999 -9999 -9999 -9999 -9999 -9999 -9999 -9999 -9999 -9999 -9999 -9999
-9999 -9999 -9999 -9999 -9999 -9999 -9999 -9999 -9999 -9999 -9999 -9999 -9999 -9999 -9999 -9999 -9999 -9999 -9999 -9999 -9999 -9999 -9999 306 302 298 295 291 288 286 284 283 281 280 279 278 278 278 279 281 283 285 288 290 292 294 296 296 297 296 294 292 288 283 277 272 266 260 254 248 241 234 228 221 215 211 207 205 205 206 208 211 214 219 225 232 238 246 254 264 274 282 289 295 302 308 313 316 319 321 321 320 319 317 314 311 306 301 295 288 280 272 263 255 249 244 241 238 235 231 226 220 213 205 197 187 177 166 157 148 139 131 124 118 113 110 108 107 107 108 108 109 109 108 106 103 100 96 93 91 90 90 91 92 92 92 91 90 89 88 89 89 88 85 78 71 65 58 51 44 40 36 34 32 30 29 28 27 25 24 23 21 20 19 18 17 16 17 19 22 25 26 27 28 29 31 33 35 38 42 46 49 52 56 59 64 71 79 87 95 102 106 110 111 112 111 111 112 112 112 112 113 114 114 113 112 111 110 108 104 99 93 88 84 82 80 79 79 78 76 75 75 74 74 75 77 78 77 74 69 64 58 52 47 42 39 38 38 40 44 48 52 55 55 53 49 42 36 30 24 19 14 11 8 7 6 5 4 4 3 3 2 2 2 1 0 -9999 -9999 -9999 -9999 -9999 -9999 -9999 -9999 -9999 -9999 -9999 -9999 -9999 -9999 -9999 -9999 -9999 -9999 -9999 -9999 -9999 -9999 -9999 -9999 -9999 -9999 -9999 -9999 -9999 -9999 -9999 -9999 -9999 -9999 -9999 -9999 -9999 -9999 -9999 -9999 -9999 -9999 -9999 -9999 -9999 -9999 -9999 -9999 -9999 -9999 -9999 -9999 -9999 -9999 -9999 -9999 -9999 -9999 -9999 -9999 -9999 -9999 -9999 -9999 -9999 -9999 -9999 -9999 -9999 -9999 -9999 -9999 -9999 -9999 -9999 -9999 -9999 -9999 -9999 -9999 -9999 -9999 -9999 -9999 -9999 -9999 -9999 -9999 -9999 -9999 -9999 -9999 -9999 -9999 -9999 -9999 -9999 -9999 -9999 -9999 -9999 -9999 -9999 -9999 -9999 -9999 -9999 -9999 -9999 -9999 -9999 -9999 -9999 -9999 -9999 -9999 -9999 -9999 -9999 -9999 -9999 -9999 -9999 -9999 -9999 -9999 -9999 -9999
-9999 -9999 -9999 -9999 -9999 -9999 -9999 -9999 -9999 -9999 -9999 -9999 -9999 -9999 -9999 -9999 -9999 -9999 -9999 -9999 -9999 -9999 310 306 301 297 292 288 285 283 282 280 279 278 277 276 275 274 275 275 276 277 278 280 282 285 288 289 290 289 288 286 282 278 273 268 262 257 252 247 241 235 228 222 216 211 207 205 204 204 206 209 212 217 222 227 233 239 246 254 262 270 277 283 289 294 300 304 308 312 315 316 316 317 316 314 310 306 300 293 286 277 269 260 254 248 244 241 238 233 228 221 213 204 195 185 174 164 154 144 136 128 122 115 110 106 104 103 103 104 106 107 107 107 105 102 98 94 90 88 87 87 87 88 89 90 90 90 89 89 88 87 85 81 75 69 62 55 49 43 40 37 34 32 30 29 27 26 25 24 22 21 20 19 18 17 16 17 19 22 25 26 27 29 31 33 36 39 42 46 50 54 57 60 63 68 74 82 89 96 102 106 109 110 111 111 111 111 111 112 113 114 115 116 115 114 113 111 108 104 99 93 88 84 81 79 78 77 75 72 71 71 71 71 73 76 77 75 71 65 59 53 48 43 39 36 35 35 36 39 42 46 49 50 49 46 41 35 29 23 18 13 10 8 7 6 5 4 3 3 2 2 2 1 1 0 -9999 -9999 -9999 -9999 -9999 -9999 -9999 -9999 -9999 -9999 -9999 -9999 -9999 -9999 -9999 -9999 -9999 -9999 -9999 -9999 -9999 -9999 -9999 -9999 -9999 -9999 -9999 -9999 -9999 -9999 -9999 -9999 -9999 -9999 -9999 -9999 -9999 -9999 -9999 -9999 -9999 -9999 -9999 -9999 -9999 -9999 -9999 -9999 -9999 -9999 -9999 -9999 -9999 -9999 -9999 -9999 -9999 -9999 -9999 -9999 -9999 -9999 -9999 -9999 -9999 -9999 -9999 -9999 -9999 -9999 -9999 -9999 -9999 -9999 -9999 -9999 -9999 -9999 -9999 -9999 -9999 -9999 -9999 -9999 -9999 -9999 -9999 -9999 -9999 -9999 -9999 -9999 -9999 -9999 -9999 -9999 -9999 -9999 -9999 -9999 -9999 -9999 -9999 -9999 -9999 -9999 -9999 -9999 -9999 -9999 -9999 -9999 -9999 -9999 -9999 -9999 -9999 -9999 -9999 -9999 -9999 -9999 -9999 -9999 -9999 -9999 -9999 -9999
-9999 -9999 -9999 -9999 -9999 -9999 -9999 -9999 -9999 -9999 -9999 -9999 -9999 -9999 -9999 -9999 -9999 -9999 -9999 -9999 -9999 -9999 310 306 301 296 291 286 282 280 278 278 277 276 274 273 273 272 272 271 269 269 269 270 273 276 279 281 282 282 281 278 275 272 267 262 257 253 249 245 240 235 229 222 216 211 208 205 203 203 205 208 211 215 220 224 228 232 238 245 252 259 265 270 276 282 288 293 299 305 310 313 316 318 318 318 315 311 306 299 292 283 275 266 258 252 248 244 240 235 229 221 212 203 193 182 171 161 150 141 133 125 118 112 106 102 100 98 98 99 101 103 104 103 101 98 95 91 88 85 84 83 83 84 85 86 87 87 87 86 84 82 79 75 70 64 58 51 45 41 39 37 35 32 30 28 27 26 25 24 22 21 19 18 17 16 16 17 19 22 24 26 27 29 32 35 39 43 48 52 56 59 63 65 69 73 78 85 91 97 102 106 108 110 111 111 112 112 113 114 115 117 118 118 118 117 116 113 110 105 100 95 90 86 83 80 79 77 75 73 71 71 72 73 74 76 77 74 69 62 56 50 45 41 37 35 33 32 32 34 37 41 43 45 44 42 38 33 28 22 17 13 10 8 7 6 5 4 3 2 2 2 2 1 0 -9999 -9999 -9999 -9999 -9999 -9999 -9999 -9999 -9999 -9999 -9999 -9999 -9999 -9999 -9999 -9999 -9999 -9999 -9999 -9999 -9999 -9999 -9999 -9999 -9999 -9999 -9999 -9999 -9999 -9999 -9999 -9999 -9999 -9999 -9999 -9999 -9999 -9999 -9999 -9999 -9999 -9999 -9999 -9999 -9999 -9999 -9999 -9999 -9999 -9999 -9999 -9999 -9999 -9999 -9999 -9999 -9999 -9999 -9999 -9999 -9999 -9999 -9999 -9999 -9999 -9999 -9999 -9999 -9999 -9999 -9999 -9999 -9999 -9999 -9999 -9999 -9999 -9999 -9999 -9999 -9999 -9999 -9999 -9999 -9999 -9999 -9999 -9999 -9999 -9999 -9999 -9999 -9999 -9999 -9999 -9999 -9999 -9999 -9999 -9999 -9999 -9999 -9999 -9999 -9999 -9999 -9999 -9999 -9999 -9999 -9999 -9999 -9999 -9999 -9999 -9999 -9999 -9999 -9999 -9999 -9999 -9999 -9999 -9999 -9999 -9999 -9999 -9999 -9999
-9999 -9999 -9999 -9999 -9999 -9999 -9999 -9999 -9999 -9999 -9999 -9999 -9999 -9999 -9999 -9999 -9999 -9999 -9999 -9999 -9999 313 310 306 301 295 290 284 280 277 275 274 274 273 272 271 271 270 269 267 264 263 262 262 264 266 269 272 272 273 272 270 267 263 259 255 252 248 246 242 238 234 229 223 218 213 209 206 204 203 204 207 211 214 218 220 223 226 231 236 242 248 254 259 265 272 278 285 293 300 307 312 316 320 322 323 321 318 313 306 299 290 281 272 263 256 250 246 241 236 229 221 212 202 191 179 168 158 147 138 130 122 115 109 103 99 96 94 93 95 96 98 99 98 97 94 91 88 84 82 80 79 79 79 80 81 81 81 81 80 78 76 72 68 63 58 52 46 42 38 37 36 35 32 30 28 27 26 24 23 22 20 19 18 17 16 15 16 18 21 24 26 28 30 33 37 42 47 53 58 62 65 68 71 74 78 83 88 94 99 103 106 108 110 112 113 114 115 116 118 119 121 122 123 122 121 119 117 113 108 103 98 93 89 87 84 82 81 79 77 76 76 77 78 79 79 77 73 67 61 54 49 45 41 38 36 34 32 31 32 34 36 38 39 39 37 34 30 26 21 16 13 10 8 7 6 5 4 3 2 2 2 1 0 0 -9999 -9999 -9999 -9999 -9999 -9999 -9999 -9999 -9999 -9999 -9999 -9999 -9999 -9999 -9999 -9999 -9999 -9999 -9999 -9999 -9999 -9999 -9999 -9999 -9999 -9999 -9999 -9999 -9999 -9999 -9999 -9999 -9999 -9999 -9999 -9999 -9999 -9999 -9999 -9999 -9999 -9999 -9999 -9999 -9999 -9999 -9999 -9999 -9999 -9999 -9999 -9999 -9999 -9999 -9999 -9999 -9999 -9999 -9999 -9999 -9999 -9999 -9999 -9999 -9999 -9999 -9999 -9999 -9999 -9999 -9999 -9999 -9999 -9999 -9999 -9999 -9999 -9999 -9999 -9999 -9999 -9999 -9999 -9999 -9999 -9999 -9999 -9999 -9999 -9999 -9999 -9999 -9999 -9999 -9999 -9999 -9999 -9999 -9999 -9999 -9999 -9999 -9999 -9999 -9999 -9999 -9999 -9999 -9999 -9999 -9999 -9999 -9999 -9999 -9999 -9999 -9999 -9999 -9999 -9999 -9999 -9999 -9999 -9999 -9999 -9999 -9999 -9999 -9999
-9999 -9999 -9999 -9999 -9999 -9999 -9999 -9999 -9999 -9999 -9999 -9999 -9999 -9999 -9999 -9999 -9999 -9999 -9999 -9999 -9999 313 310 306 300 295 289 283 278 275 272 271 270 269 268 268 268 268 266 263 260 257 255 255 256 258 260 262 263 263 263 261 257 254 251 248 245 243 241 239 236 233 228 224 219 214 210 207 205 203 203 207 210 213 216 218 219 222 225 230 235 240 245 250 256 264 271 280 289 298 306 313 318 323 326 327 326 324 319 313 306 297 287 277 268 260 253 247 242 237 230 221 212 201 190 178 166 156 145 136 127 120 113 106 101 96 92 90 89 90 91 93 94 93 92 90 87 84 81 79 77 76 75 74 75 75 75 75 74 73 72 69 66 62 57 51 46 41 38 36 36 35 34 32 30 28 26 25 24 23 21 20 19 17 16 15 15 16 17 20 23 25 28 31 35 39 45 51 57 63 67 71 74 77 80 84 87 92 96 100 103 106 108 110 113 115 117 118 120 122 124 126 127 127 126 125 123 121 116 112 107 102 98 94 91 90 88 88 87 86 85 86 86 86 85 83 80 74 68 61 56 51 48 44 42 39 37 35 33 32 32 33 34 34 34 32 30 27 23 19 15 12 10 8 7 6 5 4 3 2 2 1 1 0 -9999 -9999 -9999 -9999 -9999 -9999 -9999 -9999 -9999 -9999 -9999 -9999 -9999 -9999 -9999 -9999 -9999 -9999 -9999 -9999 -9999 -9999 -9999 -9999 -9999 -9999 -9999 -9999 -9999 -9999 -9999 -9999 -9999 -9999 -9999 -9999 -9999 -9999 -9999 -9999 -9999 -9999 -9999 -9999 -9999 -9999 -9999 -9999 -9999 -9999 -9999 -9999 -9999 -9999 -9999 -9999 -9999 -9999 -9999 -9999 -9999 -9999 -9999 -9999 -9999 -9999 -9999 -9999 -9999 -9999 -9999 -9999 -9999 -9999 -9999 -9999 -9999 -9999 -9999 -9999 -9999 -9999 -9999 -9999 -9999 -9999 -9999 -9999 -9999 -9999 -9999 -9999 -9999 -9999 -9999 -9999 -9999 -9999 -9999 -9999 -9999 -9999 -9999 -9999 -9999 -9999 -9999 -9999 -9999 -9999 -9999 -9999 -9999 -9999 -9999 -9999 -9999 -9999 -9999 -9999 -9999 -9999 -9999 -9999 -9999 -9999 -9999 -9999 -9999 -9999
-9999 -9999 -9999 -9999 -9999 -9999 -9999 -9999 -9999 -9999 -9999 -9999 -9999 -9999 -9999 -9999 -9999 -9999 -9999 -9999 314 314 310 305 300 294 288 282 278 273 270 268 266 265 264 264 264 264 262 260 256 253 251 250 250 251 253 254 254 254 253 251 248 245 242 240 238 237 236 235 233 231 228 225 221 216 212 208 205 203 202 206 209 212 214 215 216 218 221 224 229 233 237 243 249 257 265 275 286 297 306 313 320 325 329 331 331 329 326 320 313 304 294 283 272 263 254 247 242 236 229 221 211 201 189 177 166 155 145 136 127 120 112 106 99 94 90 87 86 86 87 88 88 88 87 86 84 81 79 77 74 73 71 70 70 70 69 69 68 67 66 64 60 56 51 45 41 37 35 35 34 34 34 32 30 28 26 25 23 22 21 20 19 17 16 15 15 15 17 19 23 25 28 31 36 41 47 54 60 66 71 76 79 82 86 89 92 95 98 101 104 107 109 112 115 118 120 122 124 126 128 130 131 131 130 129 127 124 121 116 111 106 102 98 96 95 95 95 96 96 96 95 95 94 92 88 84 78 71 65 60 57 53 50 47 44 42 39 36 34 32 31 31 31 30 28 26 23 20 17 14 11 9 7 6 5 4 3 3 2 2 1 1 0 -9999 -9999 -9999 -9999 -9999 -9999 -9999 -9999 -9999 -9999 -9999 -9999 -9999 -9999 -9999 -9999 -9999 -9999 -9999 -9999 -9999 -9999 -9999 -9999 -9999 -9999 -9999 -9999 -9999 -9999 -9999 -9999 -9999 -9999 -9999 -9999 -9999 -9999 -9999 -9999 -9999 -9999 -9999 -9999 -9999 -9999 -9999 -9999 -9999 -9999 -9999 -9999 -9999 -9999 -9999 -9999 -9999 -9999 -9999 -9999 -9999 -9999 -9999 -9999 -9999 -9999 -9999 -9999 -9999 -9999 -9999 -9999 -9999 -9999 -9999 -9999 -9999 -9999 -9999 -9999 -9999 -9999 -9999 -9999 -9999 -9999 -9999 -9999 -9999 -9999 -9999 -9999 -9999 -9999 -9999 -9999 -9999 -9999 -9999 -9999 -9999 -9999 -9999 -9999 -9999 -9999 -9999 -9999 -9999 -9999 -9999 -9999 -9999 -9999 -9999 -9999 -9999 -9999 -9999 -9999 -9999 -9999 -9999 -9999 -9999 -9999 -9999 -9999 -9999 -9999
-9999 -9999 -9999 -9999 -9999 -9999 -9999 -9999 -9999 -9999 -9999 -9999 -9999 -9999 -9999 -9999 -9999 -9999 -9999 -9999 316 314 311 305 300 293 288 282 278 273 269 265 263 261 260 260 260 260 259 256 253 249 247 245 245 245 246 247 247 247 245 243 240 237 235 233 232 231 231 231 230 229 227 225 222 218 213 209 206 203 202 204 208 210 212 213 213 214 217 220 223 227 232 237 244 251 260 272 284 296 306 314 321 326 331 334 335 334 331 327 320 311 300 288 275 263 253 246 239 233 227 220 211 201 190 178 167 156 146 137 129 121 114 106 99 93 88 85 83 82 83 83 83 83 83 82 81 79 77 75 72 71 69 67 66 66 65 64 63 62 61 59 56 51 46 42 38 36 35 34 34 34 34 33 31 29 26 25 23 22 21 20 19 17 16 15 14 15 16 19 22 25 28 32 36 41 48 55 62 68 74 79 83 87 90 94 97 99 101 103 106 108 111 114 117 120 122 125 127 130 132 133 134 133 132 132 130 128 124 120 115 110 106 103 101 101 101 102 103 104 104 104 103 101 98 94 88 83 77 72 67 63 60 57 54 51 47 44 40 36 33 30 28 27 25 23 21 19 17 14 12 10 8 7 6 5 4 3 3 2 2 1 1 -9999 -9999 -9999 -9999 -9999 -9999 -9999 -9999 -9999 -9999 -9999 -9999 -9999 -9999 -9999 -9999 -9999 -9999 -9999 -9999 -9999 -9999 -9999 -9999 -9999 -9999 -9999 -9999 -9999 -9999 -9999 -9999 -9999 -9999 -9999 -9999 -9999 -9999 -9999 -9999 -9999 -9999 -9999 -9999 -9999 -9999 -9999 -9999 -9999 -9999 -9999 -9999 -9999 -9999 -9999 -9999 -9999 -9999 -9999 -9999 -9999 -9999 -9999 -9999 -9999 -9999 -9999 -9999 -9999 -9999 -9999 -9999 -9999 -9999 -9999 -9999 -9999 -9999 -9999 -9999 -9999 -9999 -9999 -9999 -9999 -9999 -9999 -9999 -9999 -9999 -9999 -9999 -9999 -9999 -9999 -9999 -9999 -9999 -9999 -9999 -9999 -9999 -9999 -9999 -9999 -9999 -9999 -9999 -9999 -9999 -9999 -9999 -9999 -9999 -9999 -9999 -9999 -9999 -9999 -9999 -9999 -9999 -9999 -9999 -9999 -9999 -9999 -9999 -9999 -9999 -9999
-9999 -9999 -9999 -9999 -9999 -9999 -9999 -9999 -9999 -9999 -9999 -9999 -9999 -9999 -9999 -9999 -9999 -9999 -9999 317 317 316 312 306 299 293 288 283 278 273 268 263 260 257 256 255 255 255 255 253 250 247 244 242 241 241 241 242 242 240 238 236 233 230 228 227 226 226 226 227 227 227 226 225 222 219 214 210 206 203 201 203 206 208 210 210 210 211 213 216 219 223 228 233 239 246 256 268 281 294 305 314 321 327 332 336 338 337 336 331 324 315 304 290 276 263 251 242 236 230 225 219 211 202 191 180 169 158 148 139 131 123 115 107 99 92 87 82 80 79 79 80 80 79 79 79 78 76 75 73 71 69 68 67 65 64 63 62 60 59 57 55 52 48 44 40 38 36 35 34 34 34 34 34 33 31 28 26 24 23 21 20 19 17 16 15 14 14 15 17 21 24 28 31 35 40 47 54 61 68 75 81 86 90 94 98 101 103 104 106 108 110 113 116 119 122 125 127 130 133 135 136 135 135 134 133 132 130 127 123 118 114 110 107 106 106 107 108 109 110 110 110 108 106 102 98 93 88 83 78 74 70 66 62 59 56 52 48 43 38 33 29 26 24 22 19 17 15 14 12 10 8 7 6 6 5 4 3 3 2 2 1 0 -9999 -9999 -9999 -9999 -9999 -9999 -9999 -9999 -9999 -9999 -9999 -9999 -9999 -9999 -9999 -9999 -9999 -9999 -9999 -9999 -9999 -9999 -9999 -9999 -9999 -9999 -9999 -9999 -9999 -9999 -9999 -9999 -9999 -9999 -9999 -9999 -9999 -9999 -9999 -9999 -9999 -9999 -9999 -9999 -9999 -9999 -9999 -9999 -9999 -9999 -9999 -9999 -9999 -9999 -9999 -9999 -9999 -9999 -9999 -9999 -9999 -9999 -9999 -9999 -9999 -9999 -9999 -9999 -9999 -9999 -9999 -9999 -9999 -9999 -9999 -9999 -9999 -9999 -9999 -9999 -9999 -9999 -9999 -9999 -9999 -9999 -9999 -9999 -9999 -9999 -9999 -9999 -9999 -9999 -9999 -9999 -9999 -9999 -9999 -9999 -9999 -9999 -9999 -9999 -9999 -9999 -9999 -9999 -9999 -9999 -9999 -9999 -9999 -9999 -9999 -9999 -9999 -9999 -9999 -9999 -9999 -9999 -9999 -9999 -9999 -9999 -9999 -9999 -9999 -9999 -9999
-9999 -9999 -9999 -9999 -9999 -9999 -9999 -9999 -9999 -9999 -9999 -9999 -9999 -9999 -9999 -9999 -9999 -9999 -9999 320 320 318 313 306 300 293 288 283 278 273 267 262 257 254 252 251 251 252 252 250 247 244 241 239 238 237 238 237 237 235 232 229 226 224 223 222 221 221 222 223 225 225 225 224 222 219 215 210 206 203 201 202 204 206 207 208 208 209 211 213 216 220 224 229 235 242 252 263 277 290 303 313 321 327 332 336 338 338 337 333 326 316 304 289 274 260 248 239 232 227 223 218 211 203 193 182 171 160 151 142 134 126 117 108 100 92 86 81 78 77 77 77 77 76 76 76 75 74 72 71 69 68 67 67 65 64 63 61 59 57 55 53 50 47 44 41 39 38 37 35 35 35 36 36 35 33 31 28 25 23 22 20 19 17 15 14 14 14 14 15 18 23 27 30 34 39 45 53 60 67 74 81 87 93 97 101 104 106 107 109 110 112 115 118 121 124 127 129 132 135 136 137 136 135 135 134 134 132 129 126 122 117 114 111 110 110 111 113 114 115 115 114 112 109 105 101 97 92 87 82 78 74 70 66 63 59 54 50 44 38 33 28 24 21 19 16 13 12 11 10 8 7 6 6 5 5 4 3 3 2 2 1 -9999 -9999 -9999 -9999 -9999 -9999 -9999 -9999 -9999 -9999 -9999 -9999 -9999 -9999 -9999 -9999 -9999 -9999 -9999 -9999 -9999 -9999 -9999 -9999 -9999 -9999 -9999 -9999 -9999 -9999 -9999 -9999 -9999 -9999 -9999 -9999 -9999 -9999 -9999 -9999 -9999 -9999 -9999 -9999 -9999 -9999 -9999 -9999 -9999 -9999 -9999 -9999 -9999 -9999 -9999 -9999 -9999 -9999 -9999 -9999 -9999 -9999 -9999 -9999 -9999 -9999 -9999 -9999 -9999 -9999 -9999 -9999 -9999 -9999 -9999 -9999 -9999 -9999 -9999 -9999 -9999 -9999 -9999 -9999 -9999 -9999 -9999 -9999 -9999 -9999 -9999 -9999 -9999 -9999 -9999 -9999 -9999 -9999 -9999 -9999 -9999 -9999 -9999 -9999 -9999 -9999 -9999 -9999 -9999 -9999 -9999 -9999 -9999 -9999 -9999 -9999 -9999 -9999 -9999 -9999 -9999 -9999 -9999 -9999 -9999 -9999 -9999 -9999 -9999 -9999 -9999 -9999
-9999 -9999 -9999 -9999 -9999 -9999 -9999 -9999 -9999 -9999 -9999 -9999 -9999 -9999 -9999 -9999 -9999 -9999 322 324 323 320 314 307 300 294 288 283 278 273 267 261 256 252 249 248 248 249 249 248 246 243 240 237 235 235 235 234 232 230 227 224 222 220 218 217 217 217 218 220 222 223 224 224 222 218 214 210 206 203 201 201 202 204 205 206 207 207 209 211 213 217 221 227 232 239 248 259 272 286 300 311 319 326 331 335 336 336 335 331 323 313 300 285 271 257 246 237 231 226 223 218 212 204 195 184 173 162 153 144 136 127 118 109 100 92 85 80 77 76 75 74 74 74 73 73 73 72 71 69 68 67 67 67 66 65 63 62 60 58 56 53 50 48 45 42 41 41 39 38 38 38 37 37 36 35 33 29 26 24 22 20 18 17 15 14 14 14 14 14 16 20 26 29 33 37 43 51 58 66 73 81 88 94 100 104 107 109 110 111 112 114 117 120 123 126 128 131 134 136 137 137 136 136 135 135 135 134 132 128 125 120 117 114 113 114 115 116 117 118 118 116 113 110 106 102 98 93 89 84 80 75 71 68 64 59 55 50 44 38 32 26 22 19 17 14 12 11 10 8 7 7 6 5 5 4 4 3 3 2 1 0 -9999 -9999 -9999 -9999 -9999 -9999 -9999 -9999 -9999 -9999 -9999 -9999 -9999 -9999 -9999 -9999 -9999 -9999 -9999 -9999 -9999 -9999 -9999 -9999 -9999 -9999 -9999 -9999 -9999 -9999 -9999 -9999 -9999 -9999 -9999 -9999 -9999 -9999 -9999 -9999 -9999 -9999 -9999 -9999 -9999 -9999 -9999 -9999 -9999 -9999 -9999 -9999 -9999 -9999 -9999 -9999 -9999 -9999 -9999 -9999 -9999 -9999 -9999 -9999 -9999 -9999 -9999 -9999 -9999 -9999 -9999 -9999 -9999 -9999 -9999 -9999 -9999 -9999 -9999 -9999 -9999 -9999 -9999 -9999 -9999 -9999 -9999 -9999 -9999 -9999 -9999 -9999 -9999 -9999 -9999 -9999 -9999 -9999 -9999 -9999 -9999 -9999 -9999 -9999 -9999 -9999 -9999 -9999 -9999 -9999 -9999 -9999 -9999 -9999 -9999 -9999 -9999 -9999 -9999 -9999 -9999 -9999 -9999 -9999 -9999 -9999 -9999 -9999 -9999 -9999 -9999 -9999
-9999 -9999 -9999 -9999 -9999 -9999 -9999 -9999 -9999 -9999 -9999 -9999 -9999 -9999 -9999 -9999 -9999 -9999 327 328 327 322 315 307 300 294 289 284 279 274 267 261 255 250 247 245 245 245 246 245 243 241 238 236 234 233 232 231 229 226 223 220 218 216 215 214 214 215 216 217 219 221 222 222 221 218 214 210 206 203 201 201 201 203 204 205 206 206 207 208 211 214 219 224 230 237 245 255 267 282 296 308 318 324 328 331 332 332 329 324 315 304 292 278 265 253 243 235 230 226 223 219 212 205 195 185 174 163 153 144 136 127 118 108 99 91 85 80 78 76 74 73 72 71 71 71 70 70 69 68 67 66 66 67 67 66 65 63 61 59 57 54 52 49 46 44 43 43 42 40 40 39 39 38 37 36 34 31 27 24 21 19 18 17 15 14 14 13 14 14 15 19 25 28 32 37 42 49 57 65 73 81 89 96 102 106 110 112 113 114 115 116 119 122 124 126 129 132 134 136 137 137 136 136 135 135 135 135 134 130 127 123 119 117 116 117 117 118 119 120 119 117 114 110 106 101 97 93 88 83 79 75 71 67 63 59 54 49 43 36 30 25 21 18 16 13 11 10 9 8 7 6 6 5 5 4 4 3 3 2 1 -9999 -9999 -9999 -9999 -9999 -9999 -9999 -9999 -9999 -9999 -9999 -9999 -9999 -9999 -9999 -9999 -9999 -9999 -9999 -9999 -9999 -9999 -9999 -9999 -9999 -9999 -9999 -9999 -9999 -9999 -9999 -9999 -9999 -9999 -9999 -9999 -9999 -9999 -9999 -9999 -9999 -9999 -9999 -9999 -9999 -9999 -9999 -9999 -9999 -9999 -9999 -9999 -9999 -9999 -9999 -9999 -9999 -9999 -9999 -9999 -9999 -9999 -9999 -9999 -9999 -9999 -9999 -9999 -9999 -9999 -9999 -9999 -9999 -9999 -9999 -9999 -9999 -9999 -9999 -9999 -9999 -9999 -9999 -9999 -9999 -9999 -9999 -9999 -9999 -9999 -9999 -9999 -9999 -9999 -9999 -9999 -9999 -9999 -9999 -9999 -9999 -9999 -9999 -9999 -9999 -9999 -9999 -9999 -9999 -9999 -9999 -9999 -9999 -9999 -9999 -9999 -9999 -9999 -9999 -9999 -9999 -9999 -9999 -9999 -9999 -9999 -9999 -9999 -9999 -9999 -9999 -9999 -9999
-9999 -9999 -9999 -9999 -9999 -9999 -9999 -9999 -9999 -9999 -9999 -9999 -9999 -9999 -9999 -9999 -9999 -9999 333 333 330 325 317 308 301 294 289 284 280 275 268 262 255 250 245 242 241 241 241 241 240 238 236 234 233 231 230 228 226 223 220 217 215 214 212 212 212 212 214 215 218 220 221 221 221 218 213 209 206 204 202 201 201 201 203 204 205 205 206 206 208 211 216 222 228 234 242 251 262 277 292 305 314 320 324 326 326 324 320 313 304 294 283 271 259 249 241 234 230 227 223 218 212 205 195 185 173 161 151 143 135 126 117 107 98 91 85 81 78 76 74 72 70 70 69 69 68 68 68 67 66 66 66 67 68 67 67 65 63 61 59 56 54 51 48 45 44 43 42 41 40 40 39 39 38 37 35 31 28 24 21 19 18 17 16 15 14 13 14 14 15 19 24 28 32 37 42 49 56 64 73 81 89 96 103 108 112 114 115 116 117 119 121 122 124 126 128 131 133 135 136 136 136 135 134 134 134 135 135 132 128 125 121 119 118 118 119 119 120 119 118 115 112 107 102 98 93 89 84 80 76 72 69 65 61 56 52 47 41 35 29 24 20 17 15 13 11 10 9 8 7 6 5 5 4 4 4 3 3 2 0 -9999 -9999 -9999 -9999 -9999 -9999 -9999 -9999 -9999 -9999 -9999 -9999 -9999 -9999 -9999 -9999 -9999 -9999 -9999 -9999 -9999 -9999 -9999 -9999 -9999 -9999 -9999 -9999 -9999 -9999 -9999 -9999 -9999 -9999 -9999 -9999 -9999 -9999 -9999 -9999 -9999 -9999 -9999 -9999 -9999 -9999 -9999 -9999 -9999 -9999 -9999 -9999 -9999 -9999 -9999 -9999 -9999 -9999 -9999 -9999 -9999 -9999 -9999 -9999 -9999 -9999 -9999 -9999 -9999 -9999 -9999 -9999 -9999 -9999 -9999 -9999 -9999 -9999 -9999 -9999 -9999 -9999 -9999 -9999 -9999 -9999 -9999 -9999 -9999 -9999 -9999 -9999 -9999 -9999 -9999 -9999 -9999 -9999 -9999 -9999 -9999 -9999 -9999 -9999 -9999 -9999 -9999 -9999 -9999 -9999 -9999 -9999 -9999 -9999 -9999 -9999 -9999 -9999 -9999 -9999 -9999 -9999 -9999 -9999 -9999 -9999 -9999 -9999 -9999 -9999 -9999 -9999 -9999
-9999 -9999 -9999 -9999 -9999 -9999 -9999 -9999 -9999 -9999 -9999 -9999 -9999 -9999 -9999 -9999 -9999 337 338 337 334 328 319 310 302 295 289 285 280 276 270 263 256 249 244 239 237 235 235 235 235 233 232 231 231 229 228 226 224 221 218 215 213 212 211 210 210 211 212 214 217 219 220 220 220 219 214 209 206 204 202 202 201 200 202 203 204 204 204 204 205 209 213 219 225 231 238 246 258 272 287 300 309 315 318 319 317 314 309 301 293 283 273 263 253 245 238 233 230 226 222 217 211 204 195 184 172 160 150 141 133 124 115 106 98 90 85 81 79 76 74 72 70 68 67 67 66 66 67 66 66 65 66 67 68 69 68 67 65 64 61 59 56 53 50 46 44 42 41 40 40 39 39 39 38 38 35 32 28 24 21 19 18 17 16 15 14 14 14 14 16 20 24 28 32 37 43 50 56 64 72 80 89 97 103 109 113 116 118 119 121 122 122 122 122 124 125 127 129 131 132 133 133 133 133 133 133 134 134 132 129 126 123 120 120 119 120 119 118 117 114 111 106 101 96 91 87 83 79 76 72 69 66 63 59 54 50 45 39 34 28 24 20 17 15 13 11 10 9 8 7 6 5 5 4 4 3 3 3 1 -9999 -9999 -9999 -9999 -9999 -9999 -9999 -9999 -9999 -9999 -9999 -9999 -9999 -9999 -9999 -9999 -9999 -9999 -9999 -9999 -9999 -9999 -9999 -9999 -9999 -9999 -9999 -9999 -9999 -9999 -9999 -9999 -9999 -9999 -9999 -9999 -9999 -9999 -9999 -9999 -9999 -9999 -9999 -9999 -9999 -9999 -9999 -9999 -9999 -9999 -9999 -9999 -9999 -9999 -9999 -9999 -9999 -9999 -9999 -9999 -9999 -9999 -9999 -9999 -9999 -9999 -9999 -9999 -9999 -9999 -9999 -9999 -9999 -9999 -9999 -9999 -9999 -9999 -9999 -9999 -9999 -9999 -9999 -9999 -9999 -9999 -9999 -9999 -9999 -9999 -9999 -9999 -9999 -9999 -9999 -9999 -9999 -9999 -9999 -9999 -9999 -9999 -9999 -9999 -9999 -9999 -9999 -9999 -9999 -9999 -9999 -9999 -9999 -9999 -9999 -9999 -9999 -9999 -9999 -9999 -9999 -9999 -9999 -9999 -9999 -9999 -9999 -9999 -9999 -9999 -9999 -9999 -9999 -9999
-9999 -9999 -9999 -9999 -9999 -9999 -9999 -9999 -9999 -9999 -9999 -9999 -9999 -9999 -9999 -9999 -9999 343 344 342 337 331 321 312 303 296 290 285 281 276 270 263 256 249 243 237 233 230 229 229 229 228 228 228 228 227 226 225 222 219 216 214 212 211 210 210 209 209 210 213 216 218 219 219 219 219 214 209 206 204 202 202 201 199 200 202 202 201 201 201 202 205 210 215 221 227 234 242 252 266 281 293 303 308 310 310 307 303 297 290 281 272 263 255 248 241 235 231 228 224 220 215 209 202 193 182 170 158 148 138 130 121 113 105 97 91 85 82 79 77 74 72 69 67 66 65 65 65 65 65 65 65 65 67 68 69 70 69 68 66 63 61 58 55 52 48 44 42 40 40 39 39 39 39 38 37 35 32 28 24 21 18 17 17 16 16 15 14 14 14 17 21 25 28 32 37 44 50 57 64 71 80 88 96 103 109 114 117 120 122 123 124 122 121 120 120 121 122 124 126 128 129 130 130 130 131 131 133 133 132 130 126 123 121 120 119 118 116 114 111 108 104 99 93 88 84 80 77 74 71 68 66 64 61 57 53 49 44 39 34 29 25 21 18 16 14 12 10 9 8 7 6 6 5 4 4 3 3 2 0 -9999 -9999 -9999 -9999 -9999 -9999 -9999 -9999 -9999 -9999 -9999 -9999 -9999 -9999 -9999 -9999 -9999 -9999 -9999 -9999 -9999 -9999 -9999 -9999 -9999 -9999 -9999 -9999 -9999 -9999 -9999 -9999 -9999 -9999 -9999 -9999 -9999 -9999 -9999 -9999 -9999 -9999 -9999 -9999 -9999 -9999 -9999 -9999 -9999 -9999 -9999 -9999 -9999 -9999 -9999 -9999 -9999 -9999 -9999 -9999 -9999 -9999 -9999 -9999 -9999 -9999 -9999 -9999 -9999 -9999 -9999 -9999 -9999 -9999 -9999 -9999 -9999 -9999 -9999 -9999 -9999 -9999 -9999 -9999 -9999 -9999 -9999 -9999 -9999 -9999 -9999 -9999 -9999 -9999 -9999 -9999 -9999 -9999 -9999 -9999 -9999 -9999 -9999 -9999 -9999 -9999 -9999 -9999 -9999 -9999 -9999 -9999 -9999 -9999 -9999 -9999 -9999 -9999 -9999 -9999 -9999 -9999 -9999 -9999 -9999 -9999 -9999 -9999 -9999 -9999 -9999 -9999 -9999 -9999
-9999 -9999 -9999 -9999 -9999 -9999 -9999 -9999 -9999 -9999 -9999 -9999 -9999 -9999 -9999 -9999 347 349 349 346 341 333 323 313 303 296 290 286 282 277 271 265 257 249 242 235 229 226 224 223 223 223 224 224 224 224 224 223 221 218 215 212 211 210 209 208 208 208 209 212 216 218 218 218 218 217 213 208 205 203 202 202 200 198 198 199 199 199 198 198 199 201 205 210 216 222 229 237 247 260 274 286 295 301 302 301 297 292 286 278 270 262 254 247 241 236 232 228 225 221 217 212 207 200 191 180 169 157 146 136 127 118 111 104 97 92 86 83 80 77 74 71 69 67 65 64 64 64 64 64 64 64 65 66 68 69 70 70 69 67 65 62 60 56 53 49 45 42 40 39 38 38 38 38 38 37 35 31 28 24 21 18 17 17 16 16 15 14 14 14 17 21 25 28 33 38 44 51 57 64 71 79 88 96 103 108 113 117 120 123 124 124 122 120 118 116 116 117 119 121 124 125 126 127 127 128 129 131 132 131 129 126 123 120 117 116 113 111 107 104 99 95 90 84 79 75 72 70 68 66 65 64 63 61 57 53 49 45 40 36 32 28 24 20 17 15 13 11 10 9 8 7 6 5 4 4 3 3 2 0 -9999 -9999 -9999 -9999 -9999 -9999 -9999 -9999 -9999 -9999 -9999 -9999 -9999 -9999 -9999 -9999 -9999 -9999 -9999 -9999 -9999 -9999 -9999 -9999 -9999 -9999 -9999 -9999 -9999 -9999 -9999 -9999 -9999 -9999 -9999 -9999 -9999 -9999 -9999 -9999 -9999 -9999 -9999 -9999 -9999 -9999 -9999 -9999 -9999 -9999 -9999 -9999 -9999 -9999 -9999 -9999 -9999 -9999 -9999 -9999 -9999 -9999 -9999 -9999 -9999 -9999 -9999 -9999 -9999 -9999 -9999 -9999 -9999 -9999 -9999 -9999 -9999 -9999 -9999 -9999 -9999 -9999 -9999 -9999 -9999 -9999 -9999 -9999 -9999 -9999 -9999 -9999 -9999 -9999 -9999 -9999 -9999 -9999 -9999 -9999 -9999 -9999 -9999 -9999 -9999 -9999 -9999 -9999 -9999 -9999 -9999 -9999 -9999 -9999 -9999 -9999 -9999 -9999 -9999 -9999 -9999 -9999 -9999 -9999 -9999 -9999 -9999 -9999 -9999 -9999 -9999 -9999 -9999 -9999
-9999 -9999 -9999 -9999 -9999 -9999 -9999 -9999 -9999 -9999 -9999 -9999 -9999 -9999 -9999 -9999 353 353 352 348 342 333 323 313 303 296 291 287 283 278 272 266 258 250 242 234 228 223 220 218 218 218 219 220 221 221 221 221 219 216 213 211 209 208 208 207 206 207 209 212 216 218 218 217 217 215 211 207 204 203 202 201 199 197 196 196 196 195 194 194 194 196 199 204 210 216 223 232 241 254 267 279 288 293 294 292 287 281 274 267 259 251 245 239 235 231 228 225 221 217 213 209 203 197 188 178 166 155 143 132 123 116 109 103 97 92 87 84 80 77 74 71 69 66 64 63 62 62 63 63 63 63 63 65 67 68 69 70 69 68 66 64 61 57 53 49 45 41 38 37 37 37 37 37 37 36 34 31 28 25 21 18 17 17 16 15 15 14 14 14 17 21 24 28 33 38 45 52 58 65 71 79 87 95 102 107 112 116 120 123 124 124 122 119 115 112 111 112 114 117 119 120 122 123 124 125 127 129 130 130 128 125 121 118 114 111 107 104 99 94 90 84 79 74 70 67 64 63 62 62 62 63 63 61 58 54 51 47 44 40 36 32 28 24 20 17 14 12 11 10 9 7 6 5 4 4 3 3 2 -9999 -9999 -9999 -9999 -9999 -9999 -9999 -9999 -9999 -9999 -9999 -9999 -9999 -9999 -9999 -9999 -9999 -9999 -9999 -9999 -9999 -9999 -9999 -9999 -9999 -9999 -9999 -9999 -9999 -9999 -9999 -9999 -9999 -9999 -9999 -9999 -9999 -9999 -9999 -9999 -9999 -9999 -9999 -9999 -9999 -9999 -9999 -9999 -9999 -9999 -9999 -9999 -9999 -9999 -9999 -9999 -9999 -9999 -9999 -9999 -9999 -9999 -9999 -9999 -9999 -9999 -9999 -9999 -9999 -9999 -9999 -9999 -9999 -9999 -9999 -9999 -9999 -9999 -9999 -9999 -9999 -9999 -9999 -9999 -9999 -9999 -9999 -9999 -9999 -9999 -9999 -9999 -9999 -9999 -9999 -9999 -9999 -9999 -9999 -9999 -9999 -9999 -9999 -9999 -9999 -9999 -9999 -9999 -9999 -9999 -9999 -9999 -9999 -9999 -9999 -9999 -9999 -9999 -9999 -9999 -9999 -9999 -9999 -9999 -9999 -9999 -9999 -9999 -9999 -9999 -9999 -9999 -9999 -9999 -9999
-9999 -9999 -9999 -9999 -9999 -9999 -9999 -9999 -9999 -9999 -9999 -9999 -9999 -9999 -9999 354 356 355 353 349 342 333 322 312 303 296 291 287 283 279 273 267 259 251 243 235 228 222 218 216 216 216 216 217 218 218 219 218 216 214 211 209 207 206 205 205 205 206 208 212 215 217 217 216 216 213 209 206 204 202 201 200 198 195 194 193 193 191 191 190 190 192 194 199 204 210 217 225 235 246 259 272 281 287 287 284 278 271 263 255 247 240 235 231 228 226 223 220 217 213 209 204 199 192 184 173 162 150 139 128 120 113 107 102 97 92 88 84 80 76 73 70 67 65 63 61 61 61 61 61 61 61 62 64 65 67 68 69 69 68 67 65 62 58 53 48 43 39 36 35 35 35 36 37 36 35 33 31 28 25 22 19 17 17 16 15 14 14 14 15 18 21 24 28 33 39 46 53 60 66 72 79 87 94 100 106 110 114 118 121 123 123 120 116 112 108 107 107 109 112 114 116 117 119 120 122 125 127 128 129 127 124 120 115 111 106 101 96 90 85 79 73 68 64 61 59 57 57 57 59 60 61 62 62 59 57 54 52 49 45 41 37 32 27 23 19 15 13 11 10 9 8 7 6 5 4 4 3 2 -9999 -9999 -9999 -9999 -9999 -9999 -9999 -9999 -9999 -9999 -9999 -9999 -9999 -9999 -9999 -9999 -9999 -9999 -9999 -9999 -9999 -9999 -9999 -9999 -9999 -9999 -9999 -9999 -9999 -9999 -9999 -9999 -9999 -9999 -9999 -9999 -9999 -9999 -9999 -9999 -9999 -9999 -9999 -9999 -9999 -9999 -9999 -9999 -9999 -9999 -9999 -9999 -9999 -9999 -9999 -9999 -9999 -9999 -9999 -9999 -9999 -9999 -9999 -9999 -9999 -9999 -9999 -9999 -9999 -9999 -9999 -9999 -9999 -9999 -9999 -9999 -9999 -9999 -9999 -9999 -9999 -9999 -9999 -9999 -9999 -9999 -9999 -9999 -9999 -9999 -9999 -9999 -9999 -9999 -9999 -9999 -9999 -9999 -9999 -9999 -9999 -9999 -9999 -9999 -9999 -9999 -9999 -9999 -9999 -9999 -9999 -9999 -9999 -9999 -9999 -9999 -9999 -9999 -9999 -9999 -9999 -9999 -9999 -9999 -9999 -9999 -9999 -9999 -9999 -9999 -9999 -9999 -9999 -9999 -9999
-9999 -9999 -9999 -9999 -9999 -9999 -9999 -9999 -9999 -9999 -9999 -9999 -9999 -9999 -9999 355 356 355 352 348 341 331 321 312 303 296 291 287 283 279 273 267 259 252 244 236 229 223 219 216 215 215 214 215 215 216 216 215 213 211 209 206 205 204 203 203 204 205 208 211 214 215 215 215 214 211 208 206 203 202 201 199 197 194 192 190 189 188 187 187 187 189 191 194 199 204 211 218 228 239 252 264 274 279 279 275 268 260 252 244 236 230 226 223 221 219 217 215 212 208 204 199 193 186 178 168 157 145 134 124 116 110 105 100 95 91 87 83 79 75 71 68 66 63 61 60 60 59 59 59 59 59 60 62 64 65 67 68 68 68 67 65 61 57 52 46 41 37 34 33 33 34 35 35 35 34 32 30 28 25 22 20 18 17 16 15 14 14 14 16 18 21 25 29 34 40 47 54 61 68 74 81 87 94 100 105 109 113 116 118 120 120 117 112 108 104 102 102 104 106 109 110 111 113 115 117 121 124 126 127 126 122 118 113 107 100 94 88 81 75 68 63 58 55 53 51 51 51 53 55 58 60 61 63 62 60 59 57 54 51 47 42 37 31 26 21 17 14 12 10 9 8 7 6 5 4 4 3 2 -9999 -9999 -9999 -9999 -9999 -9999 -9999 -9999 -9999 -9999 -9999 -9999 -9999 -9999 -9999 -9999 -9999 -9999 -9999 -9999 -9999 -9999 -9999 -9999 -9999 -9999 -9999 -9999 -9999 -9999 -9999 -9999 -9999 -9999 -9999 -9999 -9999 -9999 -9999 -9999 -9999 -9999 -9999 -9999 -9999 -9999 -9999 -9999 -9999 -9999 -9999 -9999 -9999 -9999 -9999 -9999 -9999 -9999 -9999 -9999 -9999 -9999 -9999 -9999 -9999 -9999 -9999 -9999 -9999 -9999 -9999 -9999 -9999 -9999 -9999 -9999 -9999 -9999 -9999 -9999 -9999 -9999 -9999 -9999 -9999 -9999 -9999 -9999 -9999 -9999 -9999 -9999 -9999 -9999 -9999 -9999 -9999 -9999 -9999 -9999 -9999 -9999 -9999 -9999 -9999 -9999 -9999 -9999 -9999 -9999 -9999 -9999 -9999 -9999 -9999 -9999 -9999 -9999 -9999 -9999 -9999 -9999 -9999 -9999 -9999 -9999 -9999 -9999 -9999 -9999 -9999 -9999 -9999 -9999 -9999
-9999 -9999 -9999 -9999 -9999 -9999 -9999 -9999 -9999 -9999 -9999 -9999 -9999 -9999 -9999 353 354 353 350 345 338 329 319 310 302 295 290 286 282 278 272 267 260 253 245 238 230 224 220 217 215 214 213 212 213 213 213 212 210 208 205 203 202 201 201 202 203 205 207 210 213 214 214 214 212 209 207 204 202 201 199 198 195 192 189 187 186 186 185 185 186 187 189 191 195 200 206 213 222 233 244 256 265 270 271 266 260 252 243 235 227 222 218 215 213 212 210 208 206 202 198 193 186 179 171 162 151 140 129 121 113 107 102 97 93 89 85 81 77 73 69 66 64 62 60 59 58 58 57 57 57 57 58 60 62 64 66 67 68 68 67 64 60 55 49 44 39 35 31 30 31 32 33 34 33 32 31 29 27 25 22 20 19 17 16 14 14 14 15 17 19 22 25 29 35 41 49 56 64 70 77 83 89 96 101 105 109 112 114 115 116 116 112 107 102 99 97 97 98 100 102 104 105 106 108 111 115 120 123 124 124 121 116 110 103 95 87 80 73 65 59 53 49 47 45 45 45 46 48 52 56 59 61 64 65 64 63 61 59 55 51 46 40 34 27 22 17 14 12 10 9 8 7 6 5 4 4 3 2 -9999 -9999 -9999 -9999 -9999 -9999 -9999 -9999 -9999 -9999 -9999 -9999 -9999 -9999 -9999 -9999 -9999 -9999 -9999 -9999 -9999 -9999 -9999 -9999 -9999 -9999 -9999 -9999 -9999 -9999 -9999 -9999 -9999 -9999 -9999 -9999 -9999 -9999 -9999 -9999 -9999 -9999 -9999 -9999 -9999 -9999 -9999 -9999 -9999 -9999 -9999 -9999 -9999 -9999 -9999 -9999 -9999 -9999 -9999 -9999 -9999 -9999 -9999 -9999 -9999 -9999 -9999 -9999 -9999 -9999 -9999 -9999 -9999 -9999 -9999 -9999 -9999 -9999 -9999 -9999 -9999 -9999 -9999 -9999 -9999 -9999 -9999 -9999 -9999 -9999 -9999 -9999 -9999 -9999 -9999 -9999 -9999 -9999 -9999 -9999 -9999 -9999 -9999 -9999 -9999 -9999 -9999 -9999 -9999 -9999 -9999 -9999 -9999 -9999 -9999 -9999 -9999 -9999 -9999 -9999 -9999 -9999 -9999 -9999 -9999 -9999 -9999 -9999 -9999 -9999 -9999 -9999 -9999 -9999 -9999
-9999 -9999 -9999 -9999 -9999 -9999 -9999 -9999 -9999 -9999 -9999 -9999 -9999 -9999 347 351 351 349 346 341 335 326 317 309 301 294 289 284 280 276 271 265 259 253 246 239 232 226 221 217 215 212 211 210 210 210 210 209 207 205 202 200 199 199 200 200 202 204 206 209 211 213 213 212 210 208 205 202 200 199 197 196 193 190 187 185 184 184 184 185 185 187 188 190 193 197 203 209 217 227 238 249 257 262 262 258 253 245 237 229 222 216 212 208 206 204 202 200 198 195 191 185 179 172 164 155 145 135 126 117 110 104 99 94 90 87 83 79 75 71 68 65 63 61 60 58 57 57 56 56 55 56 56 58 60 62 64 66 67 67 65 62 57 52 47 41 36 32 30 29 29 30 31 31 31 31 30 28 26 24 22 21 19 17 15 14 14 15 16 18 20 22 26 30 36 43 51 59 66 73 80 86 92 98 103 107 109 111 112 112 112 111 107 101 96 92 90 90 92 93 95 96 97 98 101 104 108 113 117 120 120 117 112 105 98 89 80 72 65 57 51 46 43 41 40 40 41 43 46 51 55 58 61 65 67 67 65 64 61 57 53 47 41 34 27 22 17 13 11 10 9 8 7 6 5 4 3 3 1 -9999 -9999 -9999 -9999 -9999 -9999 -9999 -9999 -9999 -9999 -9999 -9999 -9999 -9999 -9999 -9999 -9999 -9999 -9999 -9999 -9999 -9999 -9999 -9999 -9999 -9999 -9999 -9999 -9999 -9999 -9999 -9999 -9999 -9999 -9999 -9999 -9999 -9999 -9999 -9999 -9999 -9999 -9999 -9999 -9999 -9999 -9999 -9999 -9999 -9999 -9999 -9999 -9999 -9999 -9999 -9999 -9999 -9999 -9999 -9999 -9999 -9999 -9999 -9999 -9999 -9999 -9999 -9999 -9999 -9999 -9999 -9999 -9999 -9999 -9999 -9999 -9999 -9999 -9999 -9999 -9999 -9999 -9999 -9999 -9999 -9999 -9999 -9999 -9999 -9999 -9999 -9999 -9999 -9999 -9999 -9999 -9999 -9999 -9999 -9999 -9999 -9999 -9999 -9999 -9999 -9999 -9999 -9999 -9999 -9999 -9999 -9999 -9999 -9999 -9999 -9999 -9999 -9999 -9999 -9999 -9999 -9999 -9999 -9999 -9999 -9999 -9999 -9999 -9999 -9999 -9999 -9999 -9999 -9999 -9999
-9999 -9999 -9999 -9999 -9999 -9999 -9999 -9999 -9999 -9999 -9999 -9999 -9999 -9999 344 347 347 344 341 337 331 323 315 307 300 293 287 283 278 273 268 263 258 252 246 240 234 228 223 218 215 211 209 208 207 207 207 206 204 202 199 197 197 197 198 199 200 202 205 208 210 211 212 211 209 206 202 199 197 195 194 193 191 189 186 183 182 183 184 184 185 187 188 190 192 196 202 208 215 224 233 243 250 255 255 253 248 243 235 227 220 214 208 205 201 198 195 193 191 188 183 178 172 166 159 150 141 131 123 115 108 102 96 92 88 84 81 78 73 70 67 64 63 61 59 58 57 56 55 55 54 54 55 57 59 60 62 64 64 64 62 59 55 50 44 39 35 31 29 28 28 28 29 29 29 29 28 27 26 24 22 20 19 17 15 14 14 15 17 18 20 22 26 30 36 43 52 61 69 77 83 89 95 101 106 109 110 112 111 110 109 106 101 96 90 86 84 83 84 86 88 89 89 90 92 96 100 105 110 113 113 111 106 99 91 83 74 65 58 51 45 41 38 37 36 36 38 41 45 50 55 58 62 65 68 68 66 64 60 56 51 46 40 33 27 21 16 13 11 9 8 7 6 5 4 4 3 2 -9999 -9999 -9999 -9999 -9999 -9999 -9999 -9999 -9999 -9999 -9999 -9999 -9999 -9999 -9999 -9999 -9999 -9999 -9999 -9999 -9999 -9999 -9999 -9999 -9999 -9999 -9999 -9999 -9999 -9999 -9999 -9999 -9999 -9999 -9999 -9999 -9999 -9999 -9999 -9999 -9999 -9999 -9999 -9999 -9999 -9999 -9999 -9999 -9999 -9999 -9999 -9999 -9999 -9999 -9999 -9999 -9999 -9999 -9999 -9999 -9999 -9999 -9999 -9999 -9999 -9999 -9999 -9999 -9999 -9999 -9999 -9999 -9999 -9999 -9999 -9999 -9999 -9999 -9999 -9999 -9999 -9999 -9999 -9999 -9999 -9999 -9999 -9999 -9999 -9999 -9999 -9999 -9999 -9999 -9999 -9999 -9999 -9999 -9999 -9999 -9999 -9999 -9999 -9999 -9999 -9999 -9999 -9999 -9999 -9999 -9999 -9999 -9999 -9999 -9999 -9999 -9999 -9999 -9999 -9999 -9999 -9999 -9999 -9999 -9999 -9999 -9999 -9999 -9999 -9999 -9999 -9999 -9999 -9999 -9999 -9999
-9999 -9999 -9999 -9999 -9999 -9999 -9999 -9999 -9999 -9999 -9999 -9999 -9999 -9999 339 342 342 340 338 334 328 321 314 307 300 293 287 281 276 270 265 260 255 250 244 239 234 229 224 219 214 211 208 206 205 205 204 203 201 199 197 196 195 196 196 197 198 200 203 207 209 210 210 209 206 203 199 196 193 192 191 190 188 187 184 183 182 183 184 185 186 187 189 190 193 197 202 208 215 223 231 240 246 250 252 250 248 243 236 229 222 215 209 204 199 194 190 187 184 181 177 172 167 161 154 147 138 130 121 113 106 100 94 89 86 83 79 76 72 69 66 64 62 60 59 58 56 55 54 54 54 54 54 56 57 59 60 61 61 61 59 57 53 48 42 37 34 31 29 28 28 27 27 28 28 27 27 26 25 23 22 20 18 17 15 14 13 15 17 18 20 22 25 29 35 44 53 63 72 80 87 93 99 105 109 111 112 112 111 108 105 101 96 91 85 81 78 77 77 79 80 81 82 83 85 88 92 96 101 104 105 103 99 92 84 76 67 60 53 47 42 38 36 34 34 35 37 41 45 50 55 59 62 65 66 66 65 61 58 53 48 43 37 31 25 20 16 12 10 9 8 7 6 5 4 4 3 2 -9999 -9999 -9999 -9999 -9999 -9999 -9999 -9999 -9999 -9999 -9999 -9999 -9999 -9999 -9999 -9999 -9999 -9999 -9999 -9999 -9999 -9999 -9999 -9999 -9999 -9999 -9999 -9999 -9999 -9999 -9999 -9999 -9999 -9999 -9999 -9999 -9999 -9999 -9999 -9999 -9999 -9999 -9999 -9999 -9999 -9999 -9999 -9999 -9999 -9999 -9999 -9999 -9999 -9999 -9999 -9999 -9999 -9999 -9999 -9999 -9999 -9999 -9999 -9999 -9999 -9999 -9999 -9999 -9999 -9999 -9999 -9999 -9999 -9999 -9999 -9999 -9999 -9999 -9999 -9999 -9999 -9999 -9999 -9999 -9999 -9999 -9999 -9999 -9999 -9999 -9999 -9999 -9999 -9999 -9999 -9999 -9999 -9999 -9999 -9999 -9999 -9999 -9999 -9999 -9999 -9999 -9999 -9999 -9999 -9999 -9999 -9999 -9999 -9999 -9999 -9999 -9999 -9999 -9999 -9999 -9999 -9999 -9999 -9999 -9999 -9999 -9999 -9999 -9999 -9999 -9999 -9999 -9999 -9999 -9999 -9999
-9999 -9999 -9999 -9999 -9999 -9999 -9999 -9999 -9999 -9999 -9999 -9999 -9999 329 334 337 337 336 334 331 326 319 313 307 300 294 287 281 274 267 261 256 251 246 241 237 233 229 224 219 215 210 207 205 204 203 202 201 199 197 195 194 194 194 194 195 197 199 202 205 207 208 208 206 203 200 196 192 190 188 187 187 186 184 183 183 183 183 184 185 187 188 189 191 195 199 205 211 217 224 232 239 245 249 250 250 249 246 241 234 227 220 213 207 200 194 188 183 179 176 172 168 163 158 152 145 138 129 121 113 105 99 93 88 84 81 78 74 71 68 65 63 62 60 59 57 56 55 54 53 53 53 54 55 56 57 58 59 59 58 57 55 52 47 42 37 34 31 30 29 28 28 27 27 27 26 26 25 24 23 21 20 18 17 15 14 13 14 16 18 20 22 24 29 35 44 54 65 75 83 90 97 103 108 112 114 115 113 111 107 103 98 92 87 81 77 74 72 71 72 73 74 75 76 78 80 84 88 91 94 95 94 90 84 77 69 62 55 49 44 40 36 34 33 33 34 37 41 46 51 55 59 61 63 65 64 62 58 54 49 44 39 34 28 23 19 14 12 10 8 7 6 6 5 4 3 3 1 -9999 -9999 -9999 -9999 -9999 -9999 -9999 -9999 -9999 -9999 -9999 -9999 -9999 -9999 -9999 -9999 -9999 -9999 -9999 -9999 -9999 -9999 -9999 -9999 -9999 -9999 -9999 -9999 -9999 -9999 -9999 -9999 -9999 -9999 -9999 -9999 -9999 -9999 -9999 -9999 -9999 -9999 -9999 -9999 -9999 -9999 -9999 -9999 -9999 -9999 -9999 -9999 -9999 -9999 -9999 -9999 -9999 -9999 -9999 -9999 -9999 -9999 -9999 -9999 -9999 -9999 -9999 -9999 -9999 -9999 -9999 -9999 -9999 -9999 -9999 -9999 -9999 -9999 -9999 -9999 -9999 -9999 -9999 -9999 -9999 -9999 -9999 -9999 -9999 -9999 -9999 -9999 -9999 -9999 -9999 -9999 -9999 -9999 -9999 -9999 -9999 -9999 -9999 -9999 -9999 -9999 -9999 -9999 -9999 -9999 -9999 -9999 -9999 -9999 -9999 -9999 -9999 -9999 -9999 -9999 -9999 -9999 -9999 -9999 -9999 -9999 -9999 -9999 -9999 -9999 -9999 -9999 -9999 -9999 -9999 -9999
-9999 -9999 -9999 -9999 -9999 -9999 -9999 -9999 -9999 -9999 -9999 -9999 -9999 325 329 332 333 332 331 328 324 318 313 307 302 295 289 281 273 265 258 252 247 242 238 235 232 228 224 219 215 211 207 205 203 202 200 199 197 195 194 193 193 193 193 195 196 198 200 204 206 206 205 203 200 196 192 189 187 185 184 183 183 182 182 183 183 184 185 186 188 189 191 194 198 203 208 215 221 228 235 241 246 249 251 252 251 250 246 241 234 227 220 212 203 196 188 182 177 172 169 165 161 156 151 145 138 130 122 113 105 98 92 87 83 80 76 73 70 67 64 63 61 60 58 57 56 55 53 53 52 52 53 54 55 56 57 57 57 57 56 55 52 47 42 38 35 33 31 30 29 28 28 27 26 26 25 24 23 22 21 19 18 16 15 14 13 13 15 18 20 22 24 29 35 44 55 66 77 86 93 100 106 112 116 118 118 116 112 108 102 96 90 85 79 74 70 67 66 65 66 67 68 70 71 73 75 78 81 83 84 83 80 75 69 63 56 51 46 41 38 35 33 32 32 34 37 41 46 51 55 58 60 62 62 62 59 55 50 45 41 36 30 25 21 17 13 11 9 8 7 6 6 5 4 3 2 1 -9999 -9999 -9999 -9999 -9999 -9999 -9999 -9999 -9999 -9999 -9999 -9999 -9999 -9999 -9999 -9999 -9999 -9999 -9999 -9999 -9999 -9999 -9999 -9999 -9999 -9999 -9999 -9999 -9999 -9999 -9999 -9999 -9999 -9999 -9999 -9999 -9999 -9999 -9999 -9999 -9999 -9999 -9999 -9999 -9999 -9999 -9999 -9999 -9999 -9999 -9999 -9999 -9999 -9999 -9999 -9999 -9999 -9999 -9999 -9999 -9999 -9999 -9999 -9999 -9999 -9999 -9999 -9999 -9999 -9999 -9999 -9999 -9999 -9999 -9999 -9999 -9999 -9999 -9999 -9999 -9999 -9999 -9999 -9999 -9999 -9999 -9999 -9999 -9999 -9999 -9999 -9999 -9999 -9999 -9999 -9999 -9999 -9999 -9999 -9999 -9999 -9999 -9999 -9999 -9999 -9999 -9999 -9999 -9999 -9999 -9999 -9999 -9999 -9999 -9999 -9999 -9999 -9999 -9999 -9999 -9999 -9999 -9999 -9999 -9999 -9999 -9999 -9999 -9999 -9999 -9999 -9999 -9999 -9999 -9999 -9999
-9999 -9999 -9999 -9999 -9999 -9999 -9999 -9999 -9999 -9999 -9999 -9999 -9999 322 326 329 329 329 327 325 321 317 312 308 303 297 290 282 273 264 256 249 244 239 235 233 231 227 223 219 216 212 208 205 203 201 199 198 196 194 193 192 192 192 193 194 196 197 199 202 204 204 203 201 197 193 189 186 184 182 181 181 181 181 182 183 184 185 186 187 189 192 194 197 202 207 213 220 227 233 239 244 248 251 253 254 254 254 251 247 241 235 227 218 208 199 190 183 176 171 168 164 159 155 150 145 138 131 122 114 106 98 92 87 82 78 75 72 69 66 64 62 61 59 58 57 55 54 53 52 51 51 51 52 54 55 56 57 57 56 56 55 53 49 45 41 37 35 33 32 30 29 28 27 26 25 24 23 23 22 21 19 18 16 15 13 13 13 15 17 19 22 25 29 36 45 56 67 78 87 95 102 108 114 118 121 121 118 114 109 102 96 90 84 78 72 67 63 60 59 59 60 61 62 63 65 67 70 72 73 74 72 70 65 61 56 52 47 43 39 37 34 32 31 32 34 37 41 46 50 54 56 58 59 59 58 56 52 47 42 37 33 28 23 19 16 13 10 9 8 7 6 5 5 4 3 2 -9999 -9999 -9999 -9999 -9999 -9999 -9999 -9999 -9999 -9999 -9999 -9999 -9999 -9999 -9999 -9999 -9999 -9999 -9999 -9999 -9999 -9999 -9999 -9999 -9999 -9999 -9999 -9999 -9999 -9999 -9999 -9999 -9999 -9999 -9999 -9999 -9999 -9999 -9999 -9999 -9999 -9999 -9999 -9999 -9999 -9999 -9999 -9999 -9999 -9999 -9999 -9999 -9999 -9999 -9999 -9999 -9999 -9999 -9999 -9999 -9999 -9999 -9999 -9999 -9999 -9999 -9999 -9999 -9999 -9999 -9999 -9999 -9999 -9999 -9999 -9999 -9999 -9999 -9999 -9999 -9999 -9999 -9999 -9999 -9999 -9999 -9999 -9999 -9999 -9999 -9999 -9999 -9999 -9999 -9999 -9999 -9999 -9999 -9999 -9999 -9999 -9999 -9999 -9999 -9999 -9999 -9999 -9999 -9999 -9999 -9999 -9999 -9999 -9999 -9999 -9999 -9999 -9999 -9999 -9999 -9999 -9999 -9999 -9999 -9999 -9999 -9999 -9999 -9999 -9999 -9999 -9999 -9999 -9999 -9999 -9999 -9999
-9999 -9999 -9999 -9999 -9999 -9999 -9999 -9999 -9999 -9999 -9999 -9999 315 320 324 326 326 325 324 321 318 315 312 308 304 298 290 281 272 263 254 246 241 237 234 231 229 226 223 220 217 213 209 206 204 202 200 198 196 194 192 191 191 191 192 194 195 196 198 200 202 202 201 199 195 191 187 183 181 180 179 179 180 181 182 184 185 186 188 189 192 195 198 201 206 212 219 226 233 240 245 249 252 254 256 257 258 257 256 252 248 241 234 224 213 203 193 185 178 172 168 164 160 155 150 145 139 132 123 115 106 99 92 86 82 78 75 71 68 66 63 62 60 59 57 56 54 53 52 51 50 50 50 51 52 54 55 56 56 56 56 56 55 52 48 44 41 38 36 34 31 29 28 27 26 25 24 23 22 21 20 19 17 16 14 13 13 13 14 16 18 21 25 31 38 48 58 68 78 87 95 103 109 116 121 124 123 120 115 110 103 96 90 83 77 70 64 58 54 52 51 52 52 54 55 58 60 63 64 65 65 63 60 56 52 49 46 44 40 37 35 32 31 30 31 34 37 40 44 48 51 53 54 55 55 55 53 49 44 40 35 30 26 22 18 15 12 10 9 8 7 6 5 5 4 2 1 -9999 -9999 -9999 -9999 -9999 -9999 -9999 -9999 -9999 -9999 -9999 -9999 -9999 -9999 -9999 -9999 -9999 -9999 -9999 -9999 -9999 -9999 -9999 -9999 -9999 -9999 -9999 -9999 -9999 -9999 -9999 -9999 -9999 -9999 -9999 -9999 -9999 -9999 -9999 -9999 -9999 -9999 -9999 -9999 -9999 -9999 -9999 -9999 -9999 -9999 -9999 -9999 -9999 -9999 -9999 -9999 -9999 -9999 -9999 -9999 -9999 -9999 -9999 -9999 -9999 -9999 -9999 -9999 -9999 -9999 -9999 -9999 -9999 -9999 -9999 -9999 -9999 -9999 -9999 -9999 -9999 -9999 -9999 -9999 -9999 -9999 -9999 -9999 -9999 -9999 -9999 -9999 -9999 -9999 -9999 -9999 -9999 -9999 -9999 -9999 -9999 -9999 -9999 -9999 -9999 -9999 -9999 -9999 -9999 -9999 -9999 -9999 -9999 -9999 -9999 -9999 -9999 -9999 -9999 -9999 -9999 -9999 -9999 -9999 -9999 -9999 -9999 -9999 -9999 -9999 -9999 -9999 -9999 -9999 -9999 -9999 -9999
-9999 -9999 -9999 -9999 -9999 -9999 -9999 -9999 -9999 -9999 -9999 -9999 315 320 323 325 325 323 321 318 316 314 311 308 303 296 288 280 270 261 252 244 239 235 232 230 228 226 223 220 217 214 210 208 206 203 201 198 196 194 192 190 190 190 192 194 195 196 197 199 200 200 199 197 193 189 185 181 179 178 178 178 179 180 182 184 187 189 190 192 195 199 202 206 210 216 224 233 241 247 252 255 257 258 259 260 261 261 260 257 253 247 239 229 218 207 196 187 180 174 170 165 160 155 150 144 139 132 123 115 106 99 92 86 81 78 74 71 68 65 63 61 60 59 57 56 54 52 51 50 50 49 49 50 51 53 54 55 56 56 57 58 57 54 51 48 45 41 38 35 32 30 28 26 25 24 23 22 21 20 19 18 17 16 14 13 12 13 13 15 18 21 26 32 40 50 59 69 78 87 95 103 111 117 123 126 126 122 117 110 103 96 89 82 75 67 60 53 48 45 43 43 44 45 48 51 54 56 58 58 58 55 52 48 45 42 40 39 37 34 32 30 29 28 30 32 35 38 41 44 46 48 50 51 51 51 49 46 42 37 33 29 24 21 17 14 11 10 8 7 6 6 5 4 3 2 -9999 -9999 -9999 -9999 -9999 -9999 -9999 -9999 -9999 -9999 -9999 -9999 -9999 -9999 -9999 -9999 -9999 -9999 -9999 -9999 -9999 -9999 -9999 -9999 -9999 -9999 -9999 -9999 -9999 -9999 -9999 -9999 -9999 -9999 -9999 -9999 -9999 -9999 -9999 -9999 -9999 -9999 -9999 -9999 -9999 -9999 -9999 -9999 -9999 -9999 -9999 -9999 -9999 -9999 -9999 -9999 -9999 -9999 -9999 -9999 -9999 -9999 -9999 -9999 -9999 -9999 -9999 -9999 -9999 -9999 -9999 -9999 -9999 -9999 -9999 -9999 -9999 -9999 -9999 -9999 -9999 -9999 -9999 -9999 -9999 -9999 -9999 -9999 -9999 -9999 -9999 -9999 -9999 -9999 -9999 -9999 -9999 -9999 -9999 -9999 -9999 -9999 -9999 -9999 -9999 -9999 -9999 -9999 -9999 -9999 -9999 -9999 -9999 -9999 -9999 -9999 -9999 -9999 -9999 -9999 -9999 -9999 -9999 -9999 -9999 -9999 -9999 -9999 -9999 -9999 -9999 -9999 -9999 -9999 -9999 -9999 -9999 -9999
-9999 -9999 -9999 -9999 -9999 -9999 -9999 -9999 -9999 -9999 -9999 -9999 317 321 324 325 324 321 319 317 314 312 310 306 301 294 285 277 268 259 250 243 238 234 231 229 227 225 223 221 218 215 212 209 207 205 203 200 196 193 191 190 189 189 191 193 195 196 196 198 198 198 197 194 191 187 183 180 177 177 177 178 178 180 182 185 188 191 193 195 199 203 206 210 215 221 230 240 248 254 259 261 262 262 262 263 264 264 263 260 257 251 243 233 222 210 199 189 182 176 171 166 160 154 148 143 137 131 123 114 106 98 91 85 81 77 73 70 67 64 62 61 60 59 57 56 54 52 50 49 49 49 49 49 50 52 53 55 56 56 58 58 58 57 54 51 48 44 41 36 33 30 27 25 23 22 21 21 20 20 19 18 16 15 14 13 12 12 13 15 17 21 26 33 42 51 60 69 78 86 95 104 112 119 124 127 127 123 117 110 102 94 86 78 71 62 54 46 41 37 35 35 35 37 40 43 47 50 51 52 50 48 45 41 38 36 34 33 31 30 28 27 26 26 27 29 32 35 37 40 42 43 45 47 47 47 45 43 39 35 31 27 23 20 16 13 11 9 8 7 6 6 5 4 2 1 -9999 -9999 -9999 -9999 -9999 -9999 -9999 -9999 -9999 -9999 -9999 -9999 -9999 -9999 -9999 -9999 -9999 -9999 -9999 -9999 -9999 -9999 -9999 -9999 -9999 -9999 -9999 -9999 -9999 -9999 -9999 -9999 -9999 -9999 -9999 -9999 -9999 -9999 -9999 -9999 -9999 -9999 -9999 -9999 -9999 -9999 -9999 -9999 -9999 -9999 -9999 -9999 -9999 -9999 -9999 -9999 -9999 -9999 -9999 -9999 -9999 -9999 -9999 -9999 -9999 -9999 -9999 -9999 -9999 -9999 -9999 -9999 -9999 -9999 -9999 -9999 -9999 -9999 -9999 -9999 -9999 -9999 -9999 -9999 -9999 -9999 -9999 -9999 -9999 -9999 -9999 -9999 -9999 -9999 -9999 -9999 -9999 -9999 -9999 -9999 -9999 -9999 -9999 -9999 -9999 -9999 -9999 -9999 -9999 -9999 -9999 -9999 -9999 -9999 -9999 -9999 -9999 -9999 -9999 -9999 -9999 -9999 -9999 -9999 -9999 -9999 -9999 -9999 -9999 -9999 -9999 -9999 -9999 -9999 -9999 -9999 -9999 -9999
-9999 -9999 -9999 -9999 -9999 -9999 -9999 -9999 -9999 -9999 -9999 316 320 323 324 325 323 320 317 315 313 311 308 304 298 290 282 273 265 256 248 241 236 232 229 227 225 224 223 221 219 216 213 211 209 207 204 201 197 194 191 189 188 188 189 192 194 195 195 196 196 196 195 192 189 185 181 178 177 176 176 177 178 180 183 186 189 193 195 198 202 206 210 215 220 227 236 246 255 261 265 266 266 265 265 266 267 266 265 263 259 254 245 235 224 212 201 191 183 177 172 166 159 153 146 141 135 128 121 113 105 97 90 84 80 76 72 69 66 64 62 61 60 59 58 56 53 51 50 49 48 48 49 49 50 51 53 54 55 56 58 59 59 58 56 53 50 47 42 38 33 30 27 24 22 20 20 20 20 19 19 18 16 15 13 12 12 12 13 14 17 21 27 34 42 51 60 68 77 85 95 104 113 120 125 128 127 123 116 109 100 91 82 73 64 56 47 39 34 30 29 28 29 30 33 36 40 42 44 44 43 40 38 35 32 30 28 27 26 24 23 22 22 22 24 26 28 31 33 35 37 39 41 43 43 43 41 39 36 33 29 26 22 18 15 13 11 9 8 7 6 5 5 3 2 0 -9999 -9999 -9999 -9999 -9999 -9999 -9999 -9999 -9999 -9999 -9999 -9999 -9999 -9999 -9999 -9999 -9999 -9999 -9999 -9999 -9999 -9999 -9999 -9999 -9999 -9999 -9999 -9999 -9999 -9999 -9999 -9999 -9999 -9999 -9999 -9999 -9999 -9999 -9999 -9999 -9999 -9999 -9999 -9999 -9999 -9999 -9999 -9999 -9999 -9999 -9999 -9999 -9999 -9999 -9999 -9999 -9999 -9999 -9999 -9999 -9999 -9999 -9999 -9999 -9999 -9999 -9999 -9999 -9999 -9999 -9999 -9999 -9999 -9999 -9999 -9999 -9999 -9999 -9999 -9999 -9999 -9999 -9999 -9999 -9999 -9999 -9999 -9999 -9999 -9999 -9999 -9999 -9999 -9999 -9999 -9999 -9999 -9999 -9999 -9999 -9999 -9999 -9999 -9999 -9999 -9999 -9999 -9999 -9999 -9999 -9999 -9999 -9999 -9999 -9999 -9999 -9999 -9999 -9999 -9999 -9999 -9999 -9999 -9999 -9999 -9999 -9999 -9999 -9999 -9999 -9999 -9999 -9999 -9999 -9999 -9999 -9999 -9999
-9999 -9999 -9999 -9999 -9999 -9999 -9999 -9999 -9999 -9999 -9999 320 324 326 326 325 323 319 317 315 313 310 307 301 295 287 278 269 261 252 245 238 233 229 227 225 223 222 222 221 219 217 214 212 210 208 205 202 199 194 191 188 187 187 188 190 192 193 194 194 194 194 192 190 187 184 180 177 176 176 176 176 178 180 184 187 191 194 198 202 205 210 214 219 226 234 243 252 259 265 268 269 268 268 268 269 269 268 267 264 260 254 245 235 224 212 201 191 183 177 171 165 158 151 144 138 132 125 118 110 102 95 88 83 78 74 71 68 65 63 62 61 60 59 58 55 53 51 49 48 47 47 48 49 50 51 52 53 54 55 56 58 58 57 56 54 51 48 43 38 34 31 27 25 22 21 20 20 20 20 19 17 16 14 13 12 12 12 13 14 17 21 27 33 41 49 58 66 74 83 93 103 112 119 124 127 126 121 115 106 97 86 76 66 57 48 40 33 28 25 24 23 24 25 27 30 33 35 36 36 35 33 31 28 26 24 22 21 20 19 18 18 18 19 21 23 25 27 29 31 33 35 37 39 39 39 37 35 33 30 27 24 20 17 14 12 10 9 8 7 6 5 4 3 1 -9999 -9999 -9999 -9999 -9999 -9999 -9999 -9999 -9999 -9999 -9999 -9999 -9999 -9999 -9999 -9999 -9999 -9999 -9999 -9999 -9999 -9999 -9999 -9999 -9999 -9999 -9999 -9999 -9999 -9999 -9999 -9999 -9999 -9999 -9999 -9999 -9999 -9999 -9999 -9999 -9999 -9999 -9999 -9999 -9999 -9999 -9999 -9999 -9999 -9999 -9999 -9999 -9999 -9999 -9999 -9999 -9999 -9999 -9999 -9999 -9999 -9999 -9999 -9999 -9999 -9999 -9999 -9999 -9999 -9999 -9999 -9999 -9999 -9999 -9999 -9999 -9999 -9999 -9999 -9999 -9999 -9999 -9999 -9999 -9999 -9999 -9999 -9999 -9999 -9999 -9999 -9999 -9999 -9999 -9999 -9999 -9999 -9999 -9999 -9999 -9999 -9999 -9999 -9999 -9999 -9999 -9999 -9999 -9999 -9999 -9999 -9999 -9999 -9999 -9999 -9999 -9999 -9999 -9999 -9999 -9999 -9999 -9999 -9999 -9999 -9999 -9999 -9999 -9999 -9999 -9999 -9999 -9999 -9999 -9999 -9999 -9999 -9999 -9999
-9999 -9999 -9999 -9999 -9999 -9999 -9999 -9999 -9999 -9999 -9999 324 327 328 328 326 323 319 316 314 312 309 304 299 292 284 275 266 257 249 241 235 230 227 224 222 221 221 221 220 219 217 215 212 210 208 206 203 199 195 191 188 186 186 186 188 190 191 192 192 192 191 190 188 185 182 179 176 175 175 175 176 178 181 185 188 192 196 200 204 208 212 218 224 231 239 247 255 262 267 269 269 269 269 269 270 271 270 268 265 260 253 244 233 222 211 200 189 181 174 167 161 155 148 142 135 128 121 114 106 98 92 86 81 77 72 69 66 63 62 61 60 60 59 57 55 52 50 48 47 46 46 47 48 49 50 51 52 53 54 55 55 56 55 55 54 51 47 43 39 36 32 29 27 24 23 22 22 21 21 19 18 16 14 13 11 11 12 13 14 17 21 26 32 38 45 53 61 71 81 91 101 110 118 123 125 124 119 112 103 92 80 69 58 49 41 34 29 25 22 20 19 20 21 22 25 27 29 30 29 28 27 25 23 21 19 18 17 16 15 15 15 15 16 18 20 22 24 25 27 29 31 33 35 35 35 33 31 29 27 24 21 18 15 13 11 10 8 8 7 6 5 4 2 0 -9999 -9999 -9999 -9999 -9999 -9999 -9999 -9999 -9999 -9999 -9999 -9999 -9999 -9999 -9999 -9999 -9999 -9999 -9999 -9999 -9999 -9999 -9999 -9999 -9999 -9999 -9999 -9999 -9999 -9999 -9999 -9999 -9999 -9999 -9999 -9999 -9999 -9999 -9999 -9999 -9999 -9999 -9999 -9999 -9999 -9999 -9999 -9999 -9999 -9999 -9999 -9999 -9999 -9999 -9999 -9999 -9999 -9999 -9999 -9999 -9999 -9999 -9999 -9999 -9999 -9999 -9999 -9999 -9999 -9999 -9999 -9999 -9999 -9999 -9999 -9999 -9999 -9999 -9999 -9999 -9999 -9999 -9999 -9999 -9999 -9999 -9999 -9999 -9999 -9999 -9999 -9999 -9999 -9999 -9999 -9999 -9999 -9999 -9999 -9999 -9999 -9999 -9999 -9999 -9999 -9999 -9999 -9999 -9999 -9999 -9999 -9999 -9999 -9999 -9999 -9999 -9999 -9999 -9999 -9999 -9999 -9999 -9999 -9999 -9999 -9999 -9999 -9999 -9999 -9999 -9999 -9999 -9999 -9999 -9999 -9999 -9999 -9999 -9999
-9999 -9999 -9999 -9999 -9999 -9999 -9999 -9999 -9999 -9999 323 328 330 331 330 328 324 320 317 314 311 307 303 297 289 281 272 263 254 246 238 232 227 224 221 219 219 219 219 218 217 216 214 212 209 208 206 203 200 195 190 187 185 184 185 186 187 188 189 190 189 189 188 186 183 180 177 175 174 174 175 176 178 182 186 190 194 198 202 206 210 214 220 227 234 242 249 256 262 267 269 269 269 269 270 271 271 271 268 264 258 250 241 230 219 208 197 186 177 169 162 156 150 144 138 131 124 117 109 101 94 88 83 79 74 70 67 64 62 60 60 60 59 58 57 54 51 49 47 45 45 45 45 46 48 49 50 51 52 52 53 53 54 54 53 52 50 47 43 40 37 34 32 29 27 25 24 23 23 22 21 19 17 15 13 12 11 12 13 14 16 20 25 29 34 40 48 56 66 77 88 98 108 116 121 123 121 115 108 98 86 73 62 51 42 35 30 26 22 20 18 18 18 18 19 21 22 24 25 24 23 22 20 19 17 15 14 14 13 13 13 13 13 14 15 17 18 20 22 24 26 27 29 30 31 30 29 27 26 23 21 18 16 14 12 10 9 8 7 6 5 4 3 2 -9999 -9999 -9999 -9999 -9999 -9999 -9999 -9999 -9999 -9999 -9999 -9999 -9999 -9999 -9999 -9999 -9999 -9999 -9999 -9999 -9999 -9999 -9999 -9999 -9999 -9999 -9999 -9999 -9999 -9999 -9999 -9999 -9999 -9999 -9999 -9999 -9999 -9999 -9999 -9999 -9999 -9999 -9999 -9999 -9999 -9999 -9999 -9999 -9999 -9999 -9999 -9999 -9999 -9999 -9999 -9999 -9999 -9999 -9999 -9999 -9999 -9999 -9999 -9999 -9999 -9999 -9999 -9999 -9999 -9999 -9999 -9999 -9999 -9999 -9999 -9999 -9999 -9999 -9999 -9999 -9999 -9999 -9999 -9999 -9999 -9999 -9999 -9999 -9999 -9999 -9999 -9999 -9999 -9999 -9999 -9999 -9999 -9999 -9999 -9999 -9999 -9999 -9999 -9999 -9999 -9999 -9999 -9999 -9999 -9999 -9999 -9999 -9999 -9999 -9999 -9999 -9999 -9999 -9999 -9999 -9999 -9999 -9999 -9999 -9999 -9999 -9999 -9999 -9999 -9999 -9999 -9999 -9999 -9999 -9999 -9999 -9999 -9999 -9999 -9999
-9999 -9999 -9999 -9999 -9999 -9999 -9999 -9999 -9999 -9999 326 330 332 333 332 329 325 321 318 314 310 306 301 295 288 280 271 262 253 244 237 231 225 221 218 216 217 217 218 217 216 214 212 210 208 207 205 203 200 196 190 186 183 182 183 184 185 186 187 187 187 186 185 183 181 178 176 174 173 174 175 177 180 183 188 192 196 199 203 207 210 214 220 227 235 242 250 256 261 265 267 268 268 269 270 271 271 270 266 261 254 246 237 226 215 204 192 181 171 162 155 148 143 138 132 126 119 111 103 96 89 84 79 75 71 68 65 62 60 59 58 58 58 57 55 53 50 47 45 44 43 43 44 45 46 48 49 50 51 51 51 52 52 51 51 51 49 46 43 41 39 36 34 32 30 28 27 26 25 24 23 21 19 17 15 12 11 12 13 14 16 19 23 27 31 36 43 51 62 74 85 95 105 113 118 119 117 111 103 92 79 66 55 45 36 30 26 23 21 19 18 18 18 18 18 19 20 21 21 21 20 19 18 16 15 14 13 13 12 12 12 12 12 13 13 14 16 17 19 21 22 24 25 26 27 26 25 24 22 20 18 16 14 13 11 10 8 7 6 5 4 3 2 -9999 -9999 -9999 -9999 -9999 -9999 -9999 -9999 -9999 -9999 -9999 -9999 -9999 -9999 -9999 -9999 -9999 -9999 -9999 -9999 -9999 -9999 -9999 -9999 -9999 -9999 -9999 -9999 -9999 -9999 -9999 -9999 -9999 -9999 -9999 -9999 -9999 -9999 -9999 -9999 -9999 -9999 -9999 -9999 -9999 -9999 -9999 -9999 -9999 -9999 -9999 -9999 -9999 -9999 -9999 -9999 -9999 -9999 -9999 -9999 -9999 -9999 -9999 -9999 -9999 -9999 -9999 -9999 -9999 -9999 -9999 -9999 -9999 -9999 -9999 -9999 -9999 -9999 -9999 -9999 -9999 -9999 -9999 -9999 -9999 -9999 -9999 -9999 -9999 -9999 -9999 -9999 -9999 -9999 -9999 -9999 -9999 -9999 -9999 -9999 -9999 -9999 -9999 -9999 -9999 -9999 -9999 -9999 -9999 -9999 -9999 -9999 -9999 -9999 -9999 -9999 -9999 -9999 -9999 -9999 -9999 -9999 -9999 -9999 -9999 -9999 -9999 -9999 -9999 -9999 -9999 -9999 -9999 -9999 -9999 -9999 -9999 -9999 -9999 -9999 -9999
